# .PCD v0.7 - Point Cloud Data file format
VERSION 0.7
FIELDS x y z
SIZE 4 4 4
TYPE F F F
COUNT 1 1 1
WIDTH 1608
HEIGHT 1
VIEWPOINT 0 0 0 1 0 0 0
POINTS 1608
DATA ascii
-2.049372 95.169289 667.81311
3.1313307 93.705856 657.54401
7.8247929 92.479668 648.9397
12.671395 91.090225 639.18982
48.130062 74.546799 523.10284
51.796883 73.282806 514.23328
55.318668 72.055939 505.62421
58.461704 71.060402 498.63843
63.753799 68.190826 478.50232
66.622696 67.237381 471.81186
69.247269 66.43708 466.19608
71.902977 65.549858 459.97034
85.959885 71.874016 504.34763
-22.088177 98.347229 701.64075
-16.429644 96.876999 691.15167
-10.852894 95.386009 680.51447
-5.6472301 94.041908 670.92517
-0.31208074 92.555901 660.32355
4.5969944 91.257904 651.06323
41.053493 76.917999 548.75775
48.462761 73.067108 521.28424
52.671726 72.920692 520.23969
56.971867 72.673149 518.47363
60.222485 71.593552 510.77139
66.406883 69.490814 495.76981
70.127693 69.487236 495.74429
78.104134 73.461678 524.09924
80.928482 72.354576 516.20081
86.078651 70.496956 502.94794
88.543648 69.57029 496.33682
-22.089756 96.694328 701.5675
-16.433893 95.250107 691.08893
-10.851531 93.780884 680.42896
-5.8130445 92.555161 671.53571
-0.44878018 91.079041 660.82568
4.6310678 89.701836 650.83331
9.3992157 88.447708 641.73401
40.278374 73.257957 531.52448
44.255417 71.958206 522.09412
48.054497 70.709953 513.03741
51.433914 69.692123 505.65247
54.965694 68.500183 497.00433
58.046547 67.58004 490.32825
60.911186 66.771935 484.46503
64.058327 65.68084 476.54858
66.796394 64.860207 470.59445
69.509995 64.003471 464.37839
72.10099 63.195198 458.51395
86.154366 69.189438 502.00525
88.651588 68.220963 494.97845
95.767487 59.523449 431.8735
97.706039 58.744987 426.22534
-22.298777 95.151352 702.30304
-16.561697 93.690208 691.51849
-11.026123 92.273262 681.06018
-5.8110366 90.97081 671.4469
-0.46783951 89.531868 660.82623
4.4685426 88.263107 651.46155
9.1140747 87.106834 642.92725
40.552212 71.824707 530.13135
44.512238 70.553581 520.74927
48.132023 69.445366 512.56958
51.658596 68.338829 504.4024
55.111458 67.220009 496.1445
58.187832 66.315544 489.46872
61.235836 65.375603 482.53107
64.181366 64.456146 475.74469
66.90918 63.654522 469.82797
69.62796 62.804562 463.55447
72.187836 62.033794 457.86554
74.50441 61.428295 453.39639
76.991043 60.613777 447.38449
79.304176 59.905262 442.15503
98.807983 58.397377 431.02545
-22.306253 93.500298 702.25275
-16.559587 92.059372 691.43036
-11.023391 90.666512 680.96906
-5.8096719 89.387245 671.36084
-0.46288911 87.971069 660.72443
4.4644995 86.729324 651.39801
40.728626 70.460587 529.20837
44.751678 69.166771 519.49091
48.301903 68.120392 511.6319
51.810776 67.041969 503.5322
55.254677 65.945732 495.29865
58.325432 65.057831 488.62991
61.295963 64.189857 482.11081
64.23539 63.289494 475.34845
67.027428 62.448013 469.02835
69.725357 61.626808 462.86053
72.29586 60.857052 457.07913
74.598839 60.270599 452.67444
77.079651 59.472168 446.67764
79.388855 58.776203 441.45047
91.897583 61.01326 458.25235
94.710464 59.145069 444.22092
97.685814 56.745739 426.20029
-22.307812 91.846466 702.17938
-16.557478 90.428947 691.34229
-11.024023 89.061989 680.89166
-5.8083076 87.804077 671.27478
-0.46283239 86.413483 660.64349
4.6119156 85.109398 650.67352
40.987705 69.048683 527.88708
44.900578 67.844543 518.68127
48.464966 66.80439 510.72916
51.957539 65.75293 502.69055
55.315769 64.733299 494.89536
58.456005 63.809181 487.83032
61.355988 63.00618 481.69128
64.356285 62.073093 474.55768
67.135536 61.253376 468.29083
69.77327 60.493137 462.4787
72.39193 59.694237 456.371
74.743164 59.072189 451.61539
77.204201 58.300911 445.71884
79.473259 57.650738 440.74817
91.981407 59.799656 457.17694
94.789635 57.96331 443.13782
-22.304192 90.190384 702.08588
-16.55537 88.79895 691.25427
-11.026674 87.458878 680.82251
-5.8088713 86.222351 671.19678
-0.46277571 84.85627 660.56256
4.0252323 83.904335 653.15222
37.226822 68.832664 535.82697
41.178959 67.68502 526.89319
45.074238 66.510384 517.74921
48.623894 65.495354 509.84775
52.109287 64.4645 501.82309
55.403858 63.504097 494.3468
58.511166 62.618038 487.44928
61.481339 61.776497 480.89835
64.472893 60.863674 473.79248
67.183495 60.10931 467.92017
69.832893 59.351784 462.02319
72.433846 58.580147 456.01639
74.786804 57.966232 451.23737
77.244659 57.209972 445.35028
79.509445 56.57375 440.39761
92.016502 58.661392 456.64883
94.842415 56.827137 442.37012
-22.307968 88.538376 702.02118
-16.553261 87.169357 691.1662
-11.029324 85.856094 680.75336
-5.8067045 84.639557 671.10736
-0.58570677 83.36554 661.00574
35.833313 64.864052 514.30731
41.357529 66.333763 525.96069
45.251083 65.178635 516.8017
48.780533 64.19194 508.97818
52.252365 63.185894 501.00125
55.539906 62.244915 493.54022
58.587418 61.413944 486.95142
61.54105 60.597889 480.48093
64.527237 59.704193 473.39481
67.245125 58.956493 467.46631
69.9375 58.176842 461.28442
72.495811 57.451237 455.5311
74.830368 56.862122 450.85999
77.296623 56.1106 444.90118
79.59462 55.453388 439.69016
92.065521 57.505943 455.96487
94.893776 55.696762 441.61987
-22.299173 86.880608 701.90747
-16.551153 85.540184 691.07819
-11.033991 84.254654 680.69244
-5.8059835 83.057922 671.02405
-0.58563501 81.807846 660.92468
36.106255 63.504562 513.05267
41.532581 64.988998 525.04541
45.413067 63.860466 515.92798
48.936642 62.892967 508.1116
52.318272 61.961132 500.58331
55.609367 61.033913 493.09232
58.719601 60.173809 486.14355
61.665783 59.375244 479.69196
64.642082 58.502426 472.64044
67.356201 57.768532 466.71133
69.984207 57.050537 460.91068
72.594772 56.294762 454.80478
74.973579 55.676449 449.80942
77.384254 54.982395 444.20218
79.678894 54.337196 438.98962
81.782127 53.817631 434.79205
83.875229 53.262409 430.30643
86.019089 52.604698 424.99277
94.949371 54.563705 440.81958
-22.294817 85.225479 701.81116
-16.549046 83.911423 690.99023
-11.030586 82.649513 680.59869
-5.805263 81.476692 670.9408
-0.58556324 80.250542 660.84375
32.591465 64.15712 528.3183
37.772171 64.731987 533.05219
41.712078 63.64595 524.10895
45.591408 62.536579 514.97357
49.081551 61.605 507.30222
52.399796 60.72842 500.0838
55.743282 59.78289 492.29761
58.851009 58.938011 485.34021
61.725185 58.201668 479.27661
64.703506 57.342472 472.20135
67.40815 56.627876 466.31683
70.081818 55.887066 460.21643
72.633072 55.189751 454.47421
74.967094 54.618553 449.77054
77.424606 53.897743 443.83481
79.714203 53.267628 438.646
81.859474 52.717636 434.11694
83.947838 52.174149 429.64145
86.087723 51.529472 424.3327
94.997566 53.445168 440.10797
-22.439327 83.639877 702.2948
-16.54694 82.283081 690.90228
-11.03458 81.048401 680.5351
-5.8045421 79.895844 670.85748
-1.0736734 78.941254 662.84216
32.848988 62.778542 527.12946
37.855621 63.428806 532.58954
41.883888 62.311729 523.20978
45.651154 61.287094 514.60632
49.155003 60.36412 506.85641
52.547031 59.457142 499.24084
55.877892 58.535175 491.49942
58.913013 57.751823 484.92188
61.849304 56.986012 478.49161
64.757965 56.189491 471.80353
67.513214 55.450558 465.59894
70.140846 54.755806 459.76535
72.728226 54.04216 453.77313
75.060043 53.480858 449.06006
77.507103 52.779655 443.1723
79.790016 52.164551 438.00751
81.852592 51.696861 434.08047
83.98056 51.12656 429.29184
86.118362 50.494705 423.98636
91.890762 50.586769 424.7594
94.437729 49.221268 413.29379
-22.43643 81.984955 702.2041
-16.544834 80.655151 690.81433
-11.037228 79.446945 680.466
-5.803822 78.315399 670.77423
32.547722 60.661915 519.57153
36.572159 59.641251 510.82947
41.962715 61.034054 522.75891
45.75169 60.015774 514.03729
49.308159 59.078033 506.00549
52.693398 58.190369 498.40265
55.933998 57.340546 491.12387
58.976574 56.566605 484.49503
61.843685 55.860603 478.44812
64.875832 54.99474 471.03195
67.511826 54.352303 465.52948
70.189827 53.634064 459.37775
72.731781 52.967579 453.66925
75.103165 52.385803 448.68631
77.540169 51.705132 442.85635
79.823959 51.100086 437.67413
81.971611 50.564877 433.09003
84.052841 50.044155 428.63
86.154366 49.456409 423.59595
88.019875 49.050625 420.12039
89.975342 48.50906 415.48187
96.532326 49.218121 421.55499
-22.433533 80.330452 702.11346
-16.733015 79.114281 691.4837
-11.040547 77.84613 680.39966
-5.8031015 76.735336 670.69098
32.721405 59.353527 518.76849
36.738426 58.354988 510.04099
42.130463 59.709492 521.87976
45.918442 58.709656 513.14087
49.397091 57.833313 505.48135
52.763329 56.97327 497.96429
56.022228 56.127914 490.57565
59.038418 55.384483 484.07782
61.967396 54.650871 477.6658
64.916985 53.855366 470.71286
67.623329 53.175747 464.77277
70.287239 52.479275 458.68536
72.83091 51.822247 452.94275
75.195679 51.254364 447.97928
77.592209 50.616898 442.40759
79.873367 50.024326 437.22836
81.964737 49.5467 433.05374
84.085396 49.000759 428.28204
86.249199 48.364464 422.72064
91.969963 48.481388 423.74258
93.819336 48.007393 419.59973
95.543579 47.63533 416.34778
-22.430637 78.676384 702.02283
-16.725941 77.483185 691.37598
-11.055297 76.250832 680.37982
-5.8023815 75.15567 670.60779
32.905907 58.043762 517.91962
36.916428 57.066715 509.20151
42.233387 58.424068 521.31305
45.996376 57.457001 512.68402
49.470623 56.599834 505.03558
52.894218 55.722527 497.20746
56.153683 54.891811 489.79504
59.169514 54.161331 483.27704
62.026287 53.48632 477.25397
64.986183 52.698975 470.22855
67.721367 52.011948 464.09827
70.287537 51.396252 458.60446
72.865822 50.727222 452.6348
75.238586 50.163792 447.60733
77.674141 49.507317 441.74966
79.902817 48.966949 436.92801
81.95787 48.52869 433.01743
84.117905 47.959057 427.93466
86.249527 47.363968 422.62476
88.145943 46.939831 418.84018
90.061752 46.45356 414.50122
91.921745 45.975849 410.23868
93.643898 45.600094 406.88583
-22.427742 77.022743 701.93219
-16.72381 75.854752 691.2879
-11.179215 74.704361 680.80408
-6.1684041 73.74382 672.05042
33.096767 56.735023 517.04388
37.001865 55.82666 508.76572
42.40546 57.104767 520.41351
46.155785 56.162281 511.82434
49.624912 55.323421 504.17957
52.903149 54.545292 497.08823
56.208118 53.704842 489.42892
59.163803 53.02512 483.23441
62.085075 52.32378 476.84286
65.033318 51.559135 469.87445
67.726913 50.913101 463.98694
70.391075 50.242317 457.87387
72.92186 49.618549 452.18927
75.232117 49.111549 447.56882
77.672279 48.46524 441.6788
79.947685 47.898678 436.51553
82.03463 47.441357 432.34781
84.15036 46.919044 427.58783
86.276611 46.339729 422.30838
88.173737 45.922306 418.50427
90.115295 45.419037 413.91782
91.944321 44.980488 409.92117
93.665154 44.612309 406.56583
-23.329065 78.408585 730.14136
-17.392696 77.175896 718.66254
-11.613622 75.956169 707.30444
33.550941 56.24374 523.74213
37.661903 55.251057 514.49823
42.489067 55.835457 519.94025
46.227406 54.918236 511.39905
49.619305 54.138298 504.13626
53.049728 53.291378 496.24973
56.218491 52.545048 489.2999
59.293991 51.80827 482.43903
62.143768 51.163235 476.43243
65.096519 50.410801 469.42575
67.830765 49.750542 463.2774
70.428062 49.136806 457.56232
72.957191 48.52647 451.87885
75.324188 47.988071 446.8653
77.711533 47.392586 441.32013
79.981743 46.840801 436.18192
82.111153 46.35738 431.68027
84.222092 45.847385 426.93121
86.311249 45.310303 421.9299
88.236389 44.874115 417.8681
90.173576 44.38269 413.29196
91.998985 43.953918 409.29922
93.715332 43.594994 405.95694
-23.32592 76.688713 730.04291
-17.395546 75.485451 718.58844
-11.611497 74.290092 707.20917
33.733723 54.926945 522.88043
37.83329 53.959187 513.66785
42.652836 54.527832 519.08105
46.317791 53.666451 510.88107
49.774029 52.867809 503.27838
53.102844 52.092709 495.89978
56.341869 51.322029 488.56323
59.352524 50.63686 482.04074
62.266468 49.96624 475.65671
65.14521 49.27356 469.06271
67.830643 48.657776 463.20068
70.488129 48.017509 457.10565
73.013229 47.421688 451.43372
75.317726 46.937759 446.82693
77.75209 46.32066 440.95239
80.057289 45.7528 435.5466
82.145897 45.30978 431.32925
84.254387 44.81152 426.58603
86.376762 44.255947 421.29724
88.229202 43.892151 417.83405
90.171165 43.406883 413.21451
92.018318 42.965519 409.01291
93.740036 42.607307 405.60287
95.424103 42.249004 402.19199
-22.859865 73.481308 715.45654
-17.04681 72.348228 704.42426
-11.3866 71.22744 693.5116
25.560869 56.377686 548.92578
33.92384 53.610924 521.987
38.866955 54.161743 527.3501
42.656239 53.303551 518.99426
46.386612 52.428047 510.46985
49.843384 51.645901 502.8544
53.189407 50.877747 495.37521
56.42326 50.125668 488.05255
59.418037 49.46336 481.60391
62.260841 48.848133 475.61374
65.254044 48.10165 468.34555
67.935715 47.499653 462.48413
70.481964 46.94315 457.0657
73.048622 46.332813 451.12311
75.409508 45.819553 446.1257
77.789391 45.252815 440.60764
80.058685 44.72319 435.4509
82.180588 44.263885 430.97882
84.247414 43.809093 426.55072
86.404076 43.236897 420.97946
88.291672 42.848717 417.19992
90.229256 42.375332 412.59076
92.071304 41.945675 408.40741
93.766579 41.619408 405.23065
95.467667 41.248627 401.62051
-22.856852 71.796684 715.36224
-17.049099 70.691551 704.35101
-11.389261 69.596458 693.43976
25.587475 55.074364 548.74567
34.008049 52.345417 521.55518
39.036705 52.840076 526.48389
42.824085 52.000225 518.11584
46.53616 51.151535 509.6597
49.921997 50.421272 502.38358
53.249123 49.679333 494.99109
56.477859 48.946171 487.68604
59.476578 48.295788 481.20584
62.383144 47.656956 474.84067
65.255035 46.996864 468.2637
67.933777 46.410229 462.41864
70.581863 45.80204 456.3588
73.103935 45.232388 450.68295
75.403046 44.771168 446.08746
77.867027 44.158264 439.98068
80.096931 43.667137 435.08722
82.215218 43.219688 430.62897
84.318817 42.744797 425.89728
86.397003 42.247765 420.94501
88.319244 41.838444 416.86664
90.246674 41.383587 412.33456
92.094597 40.956974 408.08392
93.814377 40.611969 404.64636
95.487091 40.276527 401.30414
-22.85384 70.112511 715.26794
-17.05265 69.035721 704.28284
-11.766402 68.118439 694.92499
25.783546 53.70121 547.84454
30.59878 53.49622 545.75323
35.118668 52.437595 534.95343
39.122231 51.561214 526.01288
42.907764 50.740753 517.64276
46.550358 49.944416 509.51877
49.994122 49.202091 501.9458
53.328602 48.47261 494.50381
56.481712 47.795132 487.59238
59.541656 47.126549 480.7717
62.377518 46.540977 474.79785
65.363304 45.830544 467.55023
68.038506 45.25753 461.7045
70.624992 44.699249 456.00906
73.142982 44.144417 450.34882
75.494553 43.658199 445.38858
77.871307 43.116985 439.86725
80.131943 42.615105 434.74722
82.208366 42.207905 430.59308
84.311852 41.74416 425.86209
86.462502 41.200237 420.31314
88.346771 40.829784 416.53387
90.2799 40.379063 411.93573
92.124443 39.963707 407.69843
93.835396 39.633507 404.3298
95.535492 39.275967 400.68228
-22.850828 68.42878 715.17371
-17.073503 67.38694 704.28503
21.052641 53.428272 558.39801
26.104776 52.281357 546.41119
30.903084 52.081867 544.32623
35.228485 51.130375 534.38184
39.228455 50.27528 525.44495
43.061134 49.451412 516.83441
46.708839 48.669735 508.66483
50.069439 47.983421 501.49194
53.390434 47.276997 494.10883
56.619629 46.575603 486.77832
59.602829 45.961422 480.35925
62.435707 45.390362 474.39093
65.369476 44.725098 467.43802
68.03656 44.170261 461.63922
70.620537 43.626732 455.95859
73.194344 43.050358 449.93469
75.488091 42.611732 445.35046
77.863823 42.084118 439.83618
80.205315 41.538002 434.12851
82.284317 41.136368 429.93091
84.383041 40.684738 425.21075
86.459747 40.209438 420.24323
88.37426 39.822735 416.20166
90.298538 39.389027 411.66885
92.142387 38.983063 407.42593
93.878525 38.635418 403.7926
95.551033 38.311504 400.40726
-23.310209 68.096291 729.55127
-17.399651 67.034538 718.17615
26.103249 50.996391 546.35107
30.899952 50.802246 544.27112
35.317074 49.834908 533.90747
39.303509 49.005661 525.02332
43.157307 48.19157 516.30157
46.707535 47.472767 508.60062
50.142902 46.767769 501.04761
53.467304 46.07592 493.63547
56.613003 45.4324 486.74112
59.664845 44.797802 479.94232
62.493793 44.241718 473.98474
65.40654 43.60321 467.14401
68.083382 43.05563 461.27753
70.675095 42.519829 455.5372
73.230164 41.967682 449.62177
75.530502 41.534687 444.98288
77.944313 40.993961 439.18979
80.205429 40.513504 434.04242
82.277466 40.1264 429.89514
84.376083 39.685886 425.17569
86.520691 39.170052 419.64929
88.401703 38.817287 415.86996
90.330391 38.389122 411.28281
92.173676 37.991905 407.02719
93.881142 37.67762 403.6601
95.597443 37.31797 399.80698
-23.30707 66.379196 729.453
-17.40913 65.348793 718.12976
26.204441 49.671955 545.85406
30.998934 49.481438 543.7605
35.495518 48.504292 533.02246
39.472088 47.698124 524.16333
43.157887 46.976086 516.2287
46.77013 46.247375 508.22076
50.136642 45.591034 501.00815
53.528915 44.884315 493.24185
56.749969 44.219173 485.93253
59.717373 43.640926 479.57803
62.551781 43.095043 473.57922
65.477699 42.464447 466.64948
68.139 41.937832 460.86243
70.723183 41.418617 455.15668
73.232445 40.906334 449.52713
75.572853 40.459419 444.61588
77.943672 39.958488 439.11105
80.20063 39.492668 433.99207
82.311935 39.088177 429.54703
84.44706 38.63131 424.52646
86.520233 38.179432 419.56067
88.4291 37.813446 415.53879
90.35099 37.400272 410.99838
92.19194 37.013859 406.75198
93.927467 36.680756 403.09149
95.59549 36.373661 399.71674
-22.841797 63.380253 714.89111
-17.20606 62.465755 704.57611
21.701176 49.249313 555.50256
26.535162 48.263313 544.3811
31.199493 48.122868 542.797
35.516968 47.241463 532.85522
39.484104 46.459705 524.03748
43.239971 45.726185 515.76385
46.863861 45.010136 507.68719
50.289623 44.342827 500.1604
53.530735 43.722237 493.16049
56.744083 43.077785 485.89151
59.720173 42.510155 479.48892
62.609673 41.950325 473.17441
65.516014 41.345146 466.34833
68.184273 40.827568 460.51038
70.771179 40.319244 454.77679
73.264252 39.828411 449.24051
75.615128 39.385925 444.24951
77.973022 38.904789 438.82257
80.231499 38.449097 433.68265
82.305092 38.079277 429.51132
84.440109 37.634235 424.49149
86.543205 37.172146 419.27942
88.421936 36.837528 415.50513
90.348312 36.431385 410.92407
92.188011 36.055752 406.68719
93.944962 35.712082 402.81079
95.638489 35.387779 399.15286
98.772041 34.878719 393.41095
-22.838789 61.698299 714.79694
-17.203821 60.808167 704.4845
21.792986 47.910015 555.05469
26.644798 46.942749 543.84863
31.297926 46.80814 542.28912
35.596996 45.95631 532.42035
39.578747 45.18845 523.52441
43.322521 44.478279 515.29681
46.922543 43.790348 507.3269
50.284096 43.168049 500.11734
53.600536 42.529915 492.72433
56.795395 41.910076 485.5433
59.835255 41.326191 478.77878
62.667461 40.807564 472.77029
65.524521 40.242401 466.22269
68.184097 39.742798 460.43457
70.817833 39.222397 454.40555
73.323074 38.736679 448.77832
75.608673 38.342495 444.21158
78.022774 37.840145 438.39166
80.274734 37.399231 433.28351
82.380699 37.016762 428.85251
84.472046 36.610882 424.15024
86.579254 36.15691 418.89078
88.449295 35.83614 415.17453
90.398964 35.421341 410.36899
92.237312 35.054432 406.11819
93.943565 34.761005 402.71872
95.634483 34.447311 399.08447
99.75177 34.287933 397.23801
-23.035278 60.083359 715.49561
-17.424875 59.227188 705.29999
17.060896 48.255939 574.65015
22.357008 47.194691 562.01245
27.108561 46.281109 551.13312
31.497416 45.457966 541.33081
35.775661 44.635353 531.53485
39.662125 43.924038 523.06427
43.397179 43.235756 514.86792
47.019272 42.55648 506.77881
50.430283 41.928822 499.30444
53.66946 41.340031 492.29291
56.874645 40.731407 485.04517
59.842884 40.195477 478.66312
62.661835 39.697067 472.72784
65.581779 39.116169 465.8103
68.2351 38.632271 460.04788
70.81295 38.154472 454.35806
73.315742 37.683239 448.7464
75.650879 37.271717 443.84586
78.016182 36.810596 438.35464
80.300186 36.362091 433.0137
82.373863 36.00967 428.81689
84.465088 35.614857 424.11533
86.600868 35.153473 418.621
88.476608 34.836342 414.84448
90.398567 34.452568 410.27432
92.234856 34.096966 406.0397
93.986122 33.773548 402.18832
95.650719 33.489265 398.80298
98.807419 32.980778 392.74768
-23.042841 58.403854 715.44342
-17.938507 57.739388 707.30377
17.125526 46.882946 574.31305
22.360193 45.872116 561.93042
27.127983 44.978207 550.9801
31.494242 44.18605 541.27625
35.794117 43.378319 531.38159
39.725525 42.669437 522.69781
43.400185 42.02338 514.78369
47.076214 41.341228 506.42734
50.430721 40.753788 499.23123
53.663723 40.183979 492.25113
56.920055 39.569916 484.72888
59.837929 39.070992 478.6171
62.656208 38.586769 472.68539
65.623199 37.999481 465.49118
68.283791 37.524719 459.67535
70.849365 37.065605 454.05127
73.349884 36.607941 448.44489
75.693024 36.202702 443.48074
78.051216 35.757481 438.02679
80.302551 35.339905 432.91156
82.408165 34.977371 428.47055
84.496979 34.594032 423.77466
86.600677 34.165936 418.53049
88.503876 33.838135 414.51495
90.415779 33.471279 410.021
92.250816 33.125633 405.78683
93.981377 32.827103 402.12988
95.672729 32.527588 398.46082
98.844818 32.015087 392.18274
-23.503271 57.868889 729.82269
17.405695 45.440544 573.08063
22.686825 44.44091 560.47363
27.33882 43.609974 549.99414
31.592125 42.878677 540.77124
35.887356 42.094917 530.88672
39.831516 41.400734 522.13196
43.558254 40.752285 513.95392
47.085831 40.146152 506.3096
50.425255 39.581474 499.18805
53.657757 39.028217 492.21054
56.924713 38.427258 484.63144
59.954082 37.893627 477.90149
62.777119 37.419487 471.92181
65.625885 36.902355 465.39993
68.280029 36.444176 459.62152
70.903908 35.969158 453.63077
73.406433 35.522518 447.99789
75.686569 35.16135 443.44296
78.094826 34.701153 437.63913
80.341415 34.297195 432.54456
82.442413 33.946743 428.12473
84.528816 33.574848 423.43454
86.631042 33.15892 418.189
88.496727 32.864941 414.48145
90.444862 32.482708 409.66083
92.279694 32.145802 405.41187
94.000572 31.862007 401.83276
95.691544 31.570192 398.1525
97.33271 31.286564 394.57547
98.844086 31.0879 392.07001
-23.525677 56.160522 729.82819
17.533541 44.05262 572.4812
22.70237 43.118294 560.33929
27.422337 42.289009 549.56238
31.689825 41.573738 540.26715
35.970039 40.817551 530.44019
39.899998 40.148216 521.74194
43.564171 39.541374 513.85583
47.169147 38.923637 505.82809
50.566322 38.352165 498.40158
53.80196 37.812374 491.38675
56.998863 37.256355 484.16104
59.96011 36.766476 477.79486
62.771492 36.311283 471.87952
65.684082 35.780552 464.98239
68.273285 35.36528 459.58582
70.902405 34.901764 453.56223
73.400131 34.470627 447.95941
75.728645 34.095039 443.07852
78.088249 33.673637 437.60223
80.37252 33.260551 432.23401
82.435577 32.941612 428.08926
84.521873 32.580753 423.39975
86.65258 32.159092 417.92014
88.523956 31.869171 414.15247
90.441414 31.518383 409.59384
92.273582 31.193207 405.36807
94.021744 30.896803 401.51617
95.683243 30.636211 398.12967
97.32489 30.360554 394.54739
98.857544 30.14831 391.78922
-23.527931 54.446026 729.75189
17.631943 42.676636 572.00421
22.915565 41.733646 559.36505
27.537777 40.959709 548.99182
31.787344 40.271233 539.76404
35.973373 39.569324 530.3562
39.903477 38.92025 521.65656
43.559731 38.334641 513.8075
47.236095 37.709419 505.42749
50.571903 37.177826 498.30246
53.796684 36.658566 491.34271
56.993649 36.119446 484.11673
59.954681 35.64455 477.75162
62.765865 35.203281 471.83722
65.678268 34.688782 464.94125
68.316414 34.263962 459.24731
70.937004 33.817787 453.26712
73.435051 33.398933 447.65314
75.770645 33.030479 442.71466
78.125641 32.623379 437.25821
80.368073 32.24461 432.18152
82.428749 31.936647 428.0538
84.592331 31.541378 422.75592
86.650818 31.174814 417.8428
88.551147 30.874979 413.82404
90.458572 30.540529 409.34134
92.292587 30.223103 405.08676
94.019218 29.950705 401.43576
95.700554 29.682236 397.83743
97.334801 29.419935 394.32178
98.871223 29.20985 391.50595
-23.678505 52.77541 730.27783
17.876831 41.258934 570.91901
23.018686 40.387375 558.85883
27.543701 39.667522 548.89789
31.784149 39.003521 539.70978
36.136234 38.268845 529.5437
40.008358 37.658363 521.09619
43.725304 37.069088 512.94214
47.240421 36.519413 505.33606
50.566616 36.007935 498.25848
53.849182 35.483196 490.99744
57.040859 34.96241 483.79111
60.001835 34.501827 477.41779
62.82336 34.069492 471.43536
65.723289 33.575611 464.60129
68.375626 33.157185 458.81131
70.940979 32.749084 453.16425
73.437309 32.344017 447.55914
75.764198 31.991196 442.677
78.119461 31.596731 437.21863
80.363297 31.229097 432.1315
82.503914 30.887121 427.39941
84.585396 30.549042 422.72125
86.64563 30.192934 417.79361
88.543999 29.903648 413.79065
90.489594 29.554852 408.96417
92.31813 29.249855 404.7438
94.035027 28.991791 401.17285
95.722321 28.726255 397.4985
97.356972 28.470512 393.95966
98.887657 28.270374 391.19028
-23.675312 51.05867 730.17932
18.01572 39.87711 570.27423
23.027382 39.071533 558.75385
27.642666 38.347477 548.39923
31.881479 37.704746 539.2077
36.158489 37.017078 529.37347
40.004459 36.434731 521.04547
43.723118 35.863972 512.88318
47.235172 35.333141 505.29187
50.623512 34.816204 497.89926
53.931095 34.298725 490.4989
57.052376 33.820301 483.65707
60.008602 33.376282 477.30722
62.880756 32.937634 471.03421
65.724083 32.48222 464.52139
68.369644 32.080124 458.77115
70.93779 31.684015 453.10645
73.4832 31.269728 447.18182
75.757751 30.952089 442.63934
78.160065 30.54743 436.85242
80.401169 30.192183 431.77209
82.497086 29.883947 427.36407
84.578461 29.556868 422.68658
86.704231 29.17466 417.2207
88.571144 28.911882 413.4628
90.484131 28.593916 408.91559
92.312462 28.298857 404.69604
94.030281 28.048429 401.11472
95.735069 27.778503 397.25458
97.371696 27.528591 393.68063
98.901604 27.334455 390.90433
-23.671234 49.342148 730.07733
18.123877 38.506939 569.75714
23.234741 37.69915 557.80493
27.750177 37.027264 547.86353
31.978628 36.408386 538.70654
36.225876 35.752186 528.99719
40.073376 35.188293 520.65375
43.718914 34.65979 512.83386
47.313976 34.119053 504.83304
50.712261 33.61525 497.37866
53.928982 33.146202 490.43851
57.045849 32.685368 483.61987
60.070965 32.230495 476.88953
62.875134 31.831919 470.99207
65.720047 31.391117 464.46988
68.363655 31.003256 458.73099
70.984131 30.598213 452.73792
73.476906 30.220116 447.14349
75.751312 29.91316 442.60172
78.153488 29.52211 436.81564
80.431229 29.160789 431.46948
82.490265 28.880938 427.32874
84.571518 28.564857 422.65192
86.701752 28.192976 417.14948
88.564011 27.941559 413.42944
90.476898 27.634281 408.8829
92.328682 27.334106 404.44147
94.052055 27.0875 400.7926
95.733414 26.842133 397.16211
97.369019 26.601091 393.59561
98.895569 26.415855 390.85483
-23.390917 46.730633 716.25018
13.148467 37.877117 580.55054
18.129398 37.166992 569.66626
23.249504 36.384602 557.67438
27.833277 35.716492 547.43414
31.97542 35.143547 538.65253
36.327084 34.478989 528.46667
40.084591 33.961323 520.53235
43.786964 33.433189 512.4375
47.378578 32.911694 504.44437
50.707512 32.447662 497.33209
53.923992 31.994942 490.39316
57.093533 31.531633 483.29193
60.065536 31.111107 476.84644
62.869507 30.726398 470.94995
65.713303 30.301298 464.43433
68.402779 29.90872 458.41721
70.979248 29.535109 452.6908
73.512306 29.153021 446.83444
75.793251 28.853174 442.23862
78.186508 28.478935 436.50259
80.43055 28.145365 431.38989
82.524353 27.857958 426.98474
84.564583 27.573009 422.61728
86.694466 27.214197 417.11768
88.591118 26.952211 413.10217
90.500053 26.656965 408.57687
92.322853 26.38415 404.39539
94.047974 26.144875 400.72794
95.725929 25.910198 397.13104
97.379875 25.66416 393.35995
98.933746 25.463379 390.28253
-24.077799 46.016415 731.5564
18.364019 35.767658 568.62445
23.254969 35.073147 557.58331
27.84874 34.426239 547.29895
32.172386 33.822887 537.70697
36.238358 33.262817 528.80316
40.23801 32.693054 519.74524
43.796059 32.226269 512.3244
47.386177 31.723841 504.33698
50.702766 31.280293 497.28555
53.979671 30.824007 490.03165
57.172703 30.368822 482.79526
60.060108 29.99192 476.80338
62.863884 29.621078 470.90781
65.81366 29.172071 463.76965
68.403297 28.830391 458.33768
70.973106 28.472725 452.65158
73.509201 28.103104 446.77548
75.835121 27.794928 441.87616
78.184227 27.452724 436.43591
80.423096 27.133402 431.35941
82.517532 26.856007 426.94946
84.634857 26.543154 421.97583
86.689995 26.234118 417.06284
88.583984 25.982889 413.06888
90.492821 25.69828 408.54425
92.319618 25.432863 404.32474
94.062851 25.190695 400.47476
95.745262 24.960688 396.81818
97.398735 24.72274 393.03537
98.928261 24.546074 390.22681
-23.96748 43.505249 718.37433
13.135753 35.153439 580.46625
18.362087 34.432671 568.56464
23.338854 33.741951 557.15924
27.953758 33.113041 546.77441
32.169163 32.56065 537.6532
36.334026 31.994101 528.2981
40.236919 31.472277 519.68152
43.877254 30.998907 511.86508
47.380226 30.540543 504.29642
50.766987 30.091976 496.88953
53.986065 29.670322 489.92703
57.171299 29.234509 482.73071
60.107327 28.85533 476.46957
62.921185 28.494267 470.50757
65.817192 28.080412 463.67386
68.458923 27.732193 457.92395
71.010956 27.393816 452.33655
73.508133 27.052664 446.70331
75.828682 26.758057 441.83865
78.178978 26.428082 436.38998
80.416405 26.121252 431.32349
82.551567 25.835564 426.60611
84.627922 25.553059 421.94128
86.709236 25.242516 416.81348
88.576843 25.013725 413.03561
90.51947 24.721302 408.20703
92.343475 24.466421 403.99832
94.055672 24.25099 400.44107
95.761497 24.014626 396.53812
97.394844 23.798178 392.96408
98.937508 23.618488 389.99695
13.383778 33.731808 579.39203
18.359577 33.098106 568.50726
23.467474 32.401691 556.54535
28.040165 31.807016 546.33093
32.165943 31.29867 537.59937
36.399052 30.735897 527.93292
40.24427 30.249498 519.57831
43.873047 29.797579 511.81598
47.374977 29.357233 504.25241
50.766636 28.92457 496.8208
53.980972 28.520615 489.88229
57.16592 28.101742 482.68753
60.114246 27.733261 476.3584
62.915562 27.390182 470.46552
65.816513 26.990641 463.60278
68.452942 26.657692 457.88394
71.013229 26.329378 452.24466
73.501518 26.004658 446.66714
75.822243 25.721361 441.80112
78.218491 25.385481 436.03189
80.486626 25.07682 430.73022
82.544754 24.834667 426.57089
84.620995 24.563124 421.90674
86.704224 24.263664 416.76309
88.60392 24.027636 412.70895
90.512253 23.763639 408.17444
92.358932 23.506128 403.75134
94.053146 23.308752 400.36108
95.756561 23.082823 396.48044
97.408447 22.862627 392.69827
98.93306 22.70141 389.92917
13.374804 32.373482 579.36066
18.579008 31.712355 567.52899
23.471151 31.093954 556.46204
28.050142 30.521637 546.21979
32.162724 30.03694 537.54553
36.406509 29.494085 527.83057
40.250427 29.027517 519.48077
43.868839 28.596481 511.76691
47.434578 28.156265 503.88873
50.764908 27.757874 496.75903
54.050526 27.34939 489.44876
57.160267 26.969257 482.64584
60.108536 26.615612 476.31696
62.909939 26.286297 470.42349
65.810707 25.902885 463.56189
68.44696 25.583378 457.84393
71.008347 25.267876 452.19763
73.547104 24.937901 446.29236
75.815811 24.684843 441.76361
78.211922 24.36252 435.99527
80.481277 24.065771 430.6846
82.537941 23.833937 426.53568
84.614075 23.573351 421.87219
86.741333 23.265757 416.36743
88.596786 23.059473 412.67575
90.532326 22.792423 407.89658
92.3554 22.557018 403.68378
94.07486 22.353424 400.04019
95.748962 22.152851 396.45071
97.402748 21.940321 392.64725
98.950333 21.770309 389.60471
13.383513 31.011459 579.25751
18.592733 30.376884 567.40442
23.464375 29.788982 556.4231
28.048668 29.239445 546.15839
32.159508 28.775463 537.49176
36.407963 28.254223 527.75555
40.246517 27.808516 519.4303
43.934513 27.377655 511.38232
47.525719 26.948683 503.36966
50.837845 26.571224 496.31915
54.045536 26.200987 489.40356
57.154396 25.837032 482.60529
60.103111 25.498074 476.27396
62.96714 25.163473 470.02405
65.804756 24.815367 463.52179
68.440987 24.509251 457.80392
71.002213 24.207016 452.15854
73.488617 23.909042 446.59271
75.809372 23.6485 441.72614
78.243057 23.325659 435.69583
80.481339 23.052839 430.59988
82.531128 22.83337 426.50046
84.607147 22.583742 421.83768
86.733177 22.289576 416.34302
88.589661 22.091465 412.64255
90.528122 21.83419 407.83694
92.351631 21.608347 403.61844
94.067467 21.415096 400.00876
95.740982 21.223236 396.42505
97.392723 21.020824 392.64423
98.944138 20.855579 389.55765
13.484761 29.630709 578.77911
18.590782 29.045328 567.34485
23.555851 28.462845 555.96716
28.121523 27.941006 545.77405
32.256088 27.491499 536.99377
36.412231 27.014053 527.66779
40.241764 26.589954 519.38379
43.942833 26.174728 511.27319
47.518688 25.768309 503.33456
50.833096 25.40678 496.27277
54.040546 25.052797 489.3584
57.208382 24.688576 482.24405
60.165115 24.361687 475.85886
62.961517 24.060823 469.98209
65.798576 23.728106 463.48309
68.479973 23.42136 457.49139
71.04966 23.12915 451.78363
73.572922 22.831366 445.96698
75.80294 22.612335 441.68863
78.238274 22.303022 435.64682
80.477013 22.041935 430.54697
82.565117 21.817232 426.15784
84.677216 21.563343 421.19861
86.728142 21.312201 416.29303
88.582535 21.123613 412.60934
90.522667 20.876818 407.78864
92.342842 20.662405 403.60049
94.084953 20.464262 399.73016
95.760658 20.278891 396.10928
97.414009 20.083538 392.29346
98.936508 19.94194 389.52762
13.379117 28.293192 579.13989
18.69747 27.692038 566.83472
23.680716 27.131926 555.36963
28.22574 26.637712 545.25348
32.252865 26.231571 536.94006
36.408051 25.776178 527.61853
40.328831 25.35063 518.90784
43.94146 24.974586 511.21057
47.521172 24.58581 503.25262
50.828346 24.242554 496.22644
54.101173 23.888126 488.97159
57.207321 23.556225 482.17783
60.159691 23.245424 475.81595
62.955898 22.958368 469.94012
65.835793 22.628588 463.18976
68.477936 22.347082 457.42758
71.043526 22.069447 451.7446
73.568222 21.784822 445.91855
75.844749 21.560511 441.32706
78.237778 21.279156 435.56796
80.470329 21.032114 430.51117
82.558304 20.817719 426.12268
84.631828 20.590231 421.46619
86.721115 20.335855 416.25931
88.575409 20.155918 412.57614
90.51545 19.920443 407.75613
92.33625 19.71554 403.56192
94.074913 19.528097 399.7251
95.753189 19.349939 396.07837
97.407806 19.162815 392.24808
98.946404 19.018337 389.29071
13.612712 26.890001 578.12494
18.698372 26.361547 566.76337
23.681749 25.828253 555.29773
28.23274 25.356508 545.15546
32.349262 24.951279 536.44312
36.501419 24.517845 527.12445
40.301155 24.138496 518.96863
43.937252 23.775373 511.16162
47.516678 23.405294 503.20505
50.823601 23.078545 496.18008
54.098473 22.740608 488.91455
57.204479 22.424629 482.12115
60.206745 22.115898 475.48355
62.950279 21.856112 469.89819
65.831512 21.541769 463.13995
68.475548 21.273205 457.36594
71.077896 20.998127 451.45184
73.568298 20.737068 445.8392
75.838318 20.525457 441.28964
78.231216 20.257627 435.53143
80.462921 20.022699 430.48056
82.551498 19.818371 426.08752
84.663383 19.587772 421.12976
86.713707 19.359818 416.22882
88.602455 19.174763 412.25021
90.50824 18.96422 407.72363
92.351677 18.759193 403.31564
94.071732 18.588789 399.65201
95.767525 18.4105 395.81885
97.40065 18.242804 392.21341
98.942192 18.103592 389.22043
13.609694 25.533947 578.06958
18.70142 25.030998 566.68317
23.679312 24.525566 555.2406
28.226595 24.078287 545.1145
32.346031 23.692896 536.38953
36.497829 23.281359 527.07263
40.394356 22.901114 518.46417
44.018139 22.558353 510.70435
47.512188 22.225 503.1575
50.880028 21.901075 495.82407
54.095512 21.593416 488.85889
57.201046 21.29344 482.06766
60.203384 21.000217 475.42929
63.007381 20.738298 469.49963
65.829269 20.454659 463.07825
68.473351 20.199564 457.30313
71.070084 19.93985 451.42337
73.560417 19.691963 445.8114
75.880058 19.47629 440.92871
78.224472 19.236326 435.49612
80.489014 19.002724 430.20755
82.544693 18.819187 426.0524
84.656464 18.600229 421.09537
86.733978 18.373905 415.97156
88.629456 18.195154 411.92477
90.501022 18.00815 407.69113
92.344261 17.813522 403.28488
94.066109 17.650892 399.60309
95.761917 17.481514 395.76849
97.393494 17.322952 392.17877
98.933128 17.191704 389.2074
13.707596 24.161039 577.6051
18.817579 23.68121 566.13403
23.679478 23.222687 555.17236
28.230034 22.798515 545.03192
32.3428 22.434765 536.336
36.568501 22.030952 526.68225
40.387634 21.68564 518.42706
44.013927 21.360558 510.65549
47.507507 21.044971 503.1109
50.877689 20.73772 495.76559
54.093647 20.446249 488.79758
57.268303 20.146666 481.63562
60.197964 19.885267 475.38647
63.001762 19.637272 469.45776
65.830589 19.366964 462.9957
68.467377 19.127176 457.26321
71.06395 18.881268 451.3844
73.557312 18.645695 445.75269
75.873634 18.442347 440.89136
78.218094 18.215086 435.45834
80.482056 17.994034 430.17377
82.578636 17.807335 425.71048
84.649551 17.612846 421.06094
86.729103 17.397818 415.92035
88.622337 17.2293 411.89169
90.493813 17.052233 407.65866
92.340614 16.866507 403.2186
94.057846 16.714327 399.58047
95.756111 16.552856 395.72031
97.385757 16.403534 392.15054
98.949654 16.267256 388.89261
13.718579 22.804224 577.49304
18.695353 22.37302 566.5733
23.773136 21.904467 554.70764
28.237303 21.518475 544.9328
32.339569 21.176886 536.28241
36.564686 20.795788 526.63147
40.400547 20.466717 518.2981
44.009716 20.162992 510.60663
47.502514 19.865221 503.06586
50.875954 19.574516 495.7041
54.087517 19.300245 488.75845
57.263088 19.017244 481.59177
60.199257 18.769054 475.30661
62.996147 18.536442 469.41592
65.824951 18.281267 462.95389
68.460556 18.055178 457.22845
71.059494 17.822453 451.33493
73.55381 17.599804 445.69656
75.867203 17.408579 440.854
78.211212 17.19416 435.42407
80.479424 16.984268 430.10876
82.531082 16.821314 425.98215
84.642632 16.625628 421.02655
86.724106 16.422012 415.87021
88.615219 16.263599 411.85861
90.510857 16.087873 407.40854
92.335442 15.920373 403.16675
94.051346 15.777172 399.54034
95.749535 15.624743 395.68021
97.395836 15.476444 391.92471
98.919144 15.366188 389.1326
13.714396 21.450218 577.4425
18.783697 21.03035 566.13959
23.756828 20.605751 554.70935
28.224318 20.242165 544.92157
32.435768 19.902832 535.78668
36.561314 19.560785 526.57874
40.393829 19.251806 518.26099
44.005505 18.965654 510.55777
47.556911 18.674816 502.72836
50.871204 18.412169 495.65787
54.08279 18.154154 488.71204
57.257874 17.888027 481.54791
60.187119 17.655968 475.30084
62.990532 17.435806 469.37408
65.881691 17.18218 462.54642
68.45475 16.983116 457.18759
71.063423 16.761921 451.23297
73.547523 16.554846 445.65848
75.860779 16.374987 440.81668
78.204369 16.173386 435.38956
80.472466 15.975967 430.07501
82.565033 15.811233 425.64032
84.635719 15.638568 420.99216
86.750671 15.436843 415.56171
88.608101 15.298056 411.82553
90.502647 15.133107 407.3851
92.328148 14.975224 403.13489
94.043961 14.840533 399.50897
95.742218 14.697103 395.64783
97.388298 14.557674 391.89438
98.913498 14.453103 389.07932
13.737882 20.092546 577.27985
18.901131 19.685514 565.58545
23.751305 19.305437 554.66541
28.237059 18.962021 544.79871
32.432533 18.646494 535.73322
36.566582 18.324659 526.48663
40.392719 18.036158 518.19769
44.001293 17.768547 510.50891
47.493793 17.506136 502.96957
50.86887 17.249615 495.59943
54.078011 17.008289 488.66589
57.252663 16.759016 481.50406
60.190479 16.539934 475.20963
62.984917 16.335369 469.33224
65.816612 16.109863 462.85318
68.448975 15.911238 457.14648
71.058968 15.703693 451.18353
73.541245 15.510067 445.62042
75.854355 15.34157 440.77933
78.198235 15.1526 435.35007
80.468483 14.967077 430.01978
82.558228 14.813428 425.60529
84.628807 14.65167 420.95779
86.745926 14.462043 415.50958
88.566856 14.342833 412.08459
90.496445 14.177822 407.34366
92.321678 14.029955 403.09528
94.036583 13.904041 399.47763
95.734612 13.769723 395.61853
97.381531 13.638749 391.8555
98.906059 13.541005 389.04721
8.3410892 19.131613 589.31451
13.707948 18.742664 577.33368
18.902821 18.358852 565.51105
23.755793 18.00395 554.57898
28.2342 17.684652 544.74353
32.329887 17.404755 536.12183
36.554131 17.091587 526.47528
40.386002 16.821657 518.16058
43.997086 16.571669 510.46008
47.552765 16.316809 502.60965
50.871948 16.086443 495.51361
54.073235 15.86264 488.61978
57.247448 15.630212 481.46024
60.180927 15.426641 475.18961
62.979301 15.235127 469.29041
65.809586 15.025059 462.81961
68.443169 14.83956 457.10565
71.047806 14.647061 451.17609
73.533768 14.465716 445.59009
75.847923 14.308328 440.742
78.191681 14.132097 435.31354
80.46315 13.958763 429.9743
82.55143 13.815788 425.57022
84.621895 13.664933 420.9234
86.74118 13.487486 415.45749
88.593872 13.367432 411.7594
90.497025 13.220757 407.24139
92.314262 13.085159 403.06454
94.029198 12.967695 399.44629
95.727295 12.842381 395.58615
97.375687 12.719673 391.8064
98.920807 12.620574 388.75381
13.731715 17.385977 577.16992
18.90451 17.032537 565.43671
23.757586 16.703215 554.50397
28.231617 16.407507 544.68726
32.32666 16.147881 536.0683
36.547588 15.857759 526.43701
40.37648 15.607726 518.1366
43.992874 15.375017 510.41125
47.546375 15.138864 502.57153
50.867207 14.924867 495.46741
54.068253 14.71724 488.57474
57.242241 14.501612 481.41641
60.177574 14.312411 475.13544
62.973686 14.135082 469.24857
65.803787 13.940196 462.77884
68.437523 13.768044 457.06381
71.036644 13.590465 451.16864
73.528564 13.421066 445.54507
75.841507 13.27526 440.70468
78.184837 13.111825 435.27905
80.456741 12.950898 429.93668
82.544632 12.818312 425.53516
84.614983 12.678357 420.88904
86.73304 12.514011 415.43317
88.586761 12.402352 411.72635
90.482033 12.268378 407.27878
92.338745 12.131466 402.73364
94.02182 12.031497 399.41492
95.719841 11.915236 395.55533
97.368767 11.801188 391.76926
98.913551 11.709326 388.71967
13.744824 16.031256 577.04944
18.898867 15.707417 565.3927
23.751966 15.403702 554.46045
28.223015 15.13135 544.65704
32.422832 14.878981 535.573
36.5499 14.622988 526.3584
40.37537 14.392815 518.0733
43.988667 14.178596 510.36243
47.538727 13.961269 502.53967
50.859451 13.76393 495.43643
54.063736 13.571985 488.52728
57.23703 13.373218 481.37259
60.174225 13.198436 475.08127
62.968075 13.035233 469.20676
65.799561 12.855268 462.72888
68.431755 12.696744 457.02274
71.033867 12.532444 451.10873
73.5224 12.376799 445.50626
75.835083 12.242368 440.66736
78.177963 12.091721 435.24478
80.448311 11.943615 429.91367
82.537834 11.821 425.50012
84.608078 11.691943 420.85464
86.690056 11.548568 415.69385
88.579651 11.437428 411.6933
90.450562 11.319926 407.46384
92.297913 11.196402 403.01752
94.014442 11.095446 399.38358
95.712379 10.988235 395.52454
97.360161 10.883399 391.75089
98.905396 10.798532 388.69611
13.837468 14.668904 576.60675
18.785433 14.393861 565.79529
23.662428 14.113443 554.77264
28.219521 13.854771 544.60468
32.320206 13.634883 535.9613
36.546314 13.389269 526.3067
40.363049 13.179533 518.06238
43.984463 12.982404 510.31363
47.544365 12.782161 502.44244
50.857117 12.602443 495.37805
54.058754 12.427013 488.48227
57.160801 12.254694 481.70874
60.170872 12.084714 475.02713
62.962463 11.935579 469.16495
65.793427 11.77086 462.69012
68.425751 11.625674 456.98315
71.029419 11.474972 451.05933
73.513336 11.333192 445.48621
75.828659 11.20965 440.63004
78.171875 11.071639 435.20508
80.487137 10.927752 429.54913
82.571739 10.816069 425.15909
84.601166 10.705689 420.82028
86.683044 10.574417 415.66022
88.538399 10.480084 411.95218
90.443359 10.365075 407.43137
92.289803 10.252173 402.99347
94.027519 10.154387 399.14963
95.704926 10.061379 395.49371
97.352631 9.9653912 391.72058
98.897789 9.8876877 388.6662
13.740277 13.326387 576.93304
18.891247 13.057441 565.28967
23.743332 12.805036 554.36237
28.217304 12.57831 544.54681
32.316982 12.37876 535.90784
36.536819 12.156414 526.28192
40.361942 11.965093 517.99908
43.980255 11.786441 510.26483
47.532284 11.605521 502.43237
50.852375 11.441509 495.33188
54.053772 11.282252 488.43726
57.155594 11.125819 481.66486
60.163391 10.971771 474.99576
62.956856 10.836123 469.12314
65.783012 10.687211 462.67639
68.419823 10.554778 456.94305
71.018257 10.4187 451.05188
73.508652 10.289024 445.43787
75.822243 10.177108 440.59274
78.164856 10.051891 435.17181
80.433609 9.9290123 429.85205
82.524239 9.82687 425.43005
84.594261 9.7195969 420.78595
86.673897 9.6008282 415.64413
88.56543 9.5080423 411.62723
90.436157 9.4103746 407.39893
92.281334 9.308135 402.97272
93.999695 9.2237835 399.32092
95.697472 9.1346684 395.46289
97.345558 9.0474081 391.68518
98.866539 8.9834061 388.91437
13.596515 11.986257 577.44788
18.799856 11.740345 565.60083
23.65756 11.513212 554.65851
28.207884 11.302768 544.5202
32.313759 11.122889 535.85437
36.461971 10.929853 526.55475
40.352425 10.751763 517.9751
43.891003 10.599165 510.62357
47.525902 10.428349 502.39432
50.838005 10.281802 495.33438
54.048222 10.137765 488.39523
57.150391 9.9971504 481.621
60.149197 9.8597441 475.00134
62.951244 9.7368612 469.08136
65.773491 9.6035185 462.6575
68.413857 9.4840755 456.90323
71.012131 9.3618107 451.01297
73.503448 9.2451525 445.39291
75.815819 9.1447401 440.55545
78.158623 9.0321875 435.13312
80.429901 8.921381 429.79492
82.517441 8.8300505 425.39502
84.587357 8.7336655 420.75159
86.670547 8.6263313 415.58066
88.558327 8.5435829 411.59418
90.428955 8.4558277 407.36649
92.272041 8.3643551 402.95975
93.992317 8.2881727 399.28958
95.690018 8.2081013 395.4321
97.338951 8.1294842 391.64462
98.859642 8.0720139 388.87595
13.739616 10.622321 576.80096
18.79789 10.41497 565.54169
23.652527 10.2137 554.61255
28.208313 10.026565 544.45093
32.310535 9.8672667 535.8009
36.458389 9.6960382 526.50305
40.345715 9.5383062 517.93805
43.971844 9.3951998 510.16727
47.462852 9.2564869 502.63501
50.833263 9.1211882 495.28818
54.040951 8.993638 488.36212
57.145977 8.8686085 481.57294
60.139648 8.7472191 474.98135
62.945637 8.6377954 469.03955
65.769562 8.5193119 462.60583
68.40789 8.4135599 456.86337
71.002647 8.3054895 450.99506
73.494507 8.2019377 445.3721
75.809402 8.1125469 440.51816
78.151932 8.0127239 435.09763
80.420395 7.9147897 429.77972
82.469887 7.8390365 425.66629
84.580452 7.7478952 420.71725
86.660011 7.653213 415.57593
88.517067 7.584651 411.85294
90.421761 7.5014315 407.33405
92.241547 7.4243078 403.14615
93.984062 7.35287 399.26703
95.682564 7.2816792 395.40131
97.329887 7.2122531 391.63141
98.848076 7.1618147 388.89255
13.598063 9.2799425 577.30676
18.676594 9.0978155 565.97662
23.646627 8.914463 554.57019
28.094925 8.7586212 544.87524
32.307312 8.6118965 535.74744
36.357941 8.4695539 526.89233
40.250378 8.3316727 518.31476
43.8806 8.206624 510.53543
47.45837 8.078866 502.58755
50.761967 7.9661965 495.57837
54.029106 7.850049 488.35281
57.140972 7.7403436 481.52802
60.083843 7.6388817 475.21606
62.877327 7.5446458 469.35364
65.756996 7.436161 462.60477
68.399719 7.3434458 456.83694
71.001564 7.2484093 450.92471
73.48983 7.1583772 445.32379
75.802986 7.0805292 440.48087
78.145988 6.9933424 435.05695
80.416557 6.9076114 429.7236
82.463089 6.8418279 425.63123
84.573547 6.7622857 420.68289
86.648972 6.6801834 415.57529
88.509964 6.6198163 411.81985
90.414558 6.5471878 407.30164
92.234261 6.4798789 403.11432
93.974251 6.4179196 399.25983
95.674904 6.3554354 395.37268
97.320816 6.2950835 391.61819
98.843163 6.2502794 388.83087
13.586886 7.9279461 577.28461
18.674637 7.7718377 565.91736
23.536268 7.621501 554.9704
28.189478 7.476305 544.39771
32.204571 7.3628464 536.13605
36.354958 7.2351522 526.83783
40.244179 7.1175604 518.27521
43.876404 7.0105982 510.4866
47.453892 6.9014678 502.54013
50.757233 6.8052258 495.53214
54.016689 6.7065444 488.3465
57.129787 6.6127419 481.51617
60.011414 6.5307016 475.54224
62.871723 6.4451375 469.3118
65.753197 6.3523092 462.5524
68.388443 6.2737126 456.82922
70.89798 6.2004538 451.49478
73.484749 6.1150784 445.27808
75.79657 6.0486856 440.44357
78.139404 5.9742126 435.02075
80.403671 5.9015923 429.73279
82.456299 5.8447833 425.59616
84.566643 5.7768373 420.64856
86.643105 5.7065768 415.53244
88.468651 5.6591487 412.07889
90.407356 5.5930963 407.2692
92.227615 5.5355163 403.07645
93.966217 5.4827623 399.23508
95.635101 5.4339366 395.67978
97.269882 5.3843341 392.06787
98.833572 5.339788 388.82422
13.581547 6.5757842 577.23883
18.672274 6.4461565 565.8598
23.647833 6.3159561 554.43048
28.076416 6.2064815 544.82056
32.201355 6.1069407 536.08258
36.351383 6.0010366 526.78607
40.175713 5.9069438 518.52637
43.866867 5.8150916 510.46335
47.447514 5.7243981 502.50204
50.675098 5.6489267 495.87695
53.955868 5.5659332 488.59158
57.120434 5.485085 481.49454
60.005817 5.4168015 475.50043
62.803322 5.349884 469.62622
65.700546 5.2719607 462.78592
68.333542 5.2070193 457.08524
