# .PCD v0.7 - Point Cloud Data file format
VERSION 0.7
FIELDS x y z
SIZE 4 4 4
TYPE F F F
COUNT 1 1 1
WIDTH 1873
HEIGHT 1
VIEWPOINT 0 0 0 1 0 0 0
POINTS 1873
DATA ascii
0.05461 0.28210 0.18711 
0.05561 0.28277 0.18722 
0.05661 0.28367 0.18732 
0.05762 0.28457 0.18741 
0.05862 0.28547 0.18750 
0.05963 0.28648 0.18757 
0.06064 0.28749 0.18765 
0.06163 0.28853 0.18773 
0.06266 0.28967 0.18778 
0.06367 0.29074 0.18783 
0.06468 0.29181 0.18787 
0.06566 0.29291 0.18793 
0.06675 0.29466 0.18786 
-0.05638 0.26684 0.20298 
-0.05472 0.26570 0.22083 
-0.05905 0.29015 0.25457 
-0.04883 0.26750 0.22724 
-0.08814 0.35832 0.20067 
-0.04761 0.25024 0.17254 
-0.04665 0.24918 0.17284 
-0.04567 0.24885 0.17306 
-0.04469 0.24874 0.17326 
-0.04371 0.24874 0.17345 
-0.04272 0.24895 0.17362 
-0.04173 0.24916 0.17378 
-0.04075 0.24947 0.17393 
-0.03976 0.24968 0.17410 
-0.03877 0.24989 0.17427 
-0.03778 0.25020 0.17442 
-0.03679 0.25041 0.17459 
-0.03580 0.25073 0.17474 
-0.03482 0.25093 0.17491 
-0.03383 0.25114 0.17507 
-0.03284 0.25146 0.17523 
-0.03185 0.25167 0.17540 
-0.03086 0.25198 0.17555 
-0.02988 0.25220 0.17571 
-0.02889 0.25243 0.17588 
-0.02790 0.25276 0.17603 
-0.02690 0.25321 0.17617 
-0.02590 0.25389 0.17628 
-0.02491 0.25467 0.17639 
-0.02389 0.25580 0.17645 
-0.02289 0.25692 0.17652 
-0.02189 0.25748 0.17664 
-0.02090 0.25782 0.17679 
-0.01991 0.25827 0.17693 
-0.01892 0.25838 0.17711 
-0.01794 0.25849 0.17729 
-0.01695 0.25859 0.17746 
-0.01596 0.25870 0.17764 
-0.01498 0.25881 0.17782 
-0.01400 0.25881 0.17800 
-0.01302 0.25858 0.17821 
-0.01204 0.25835 0.17843 
-0.01107 0.25812 0.17864 
-0.01009 0.25789 0.17885 
-0.00910 0.25822 0.17900 
-0.00811 0.25845 0.17917 
-0.00712 0.25889 0.17931 
-0.00612 0.25957 0.17942 
-0.00500 0.26510 0.17901 
-0.00401 0.26543 0.17917 
-0.00302 0.26566 0.17933 
-0.00203 0.26599 0.17948 
-0.00104 0.26633 0.17963 
-0.00005 0.26678 0.17977 
0.00094 0.26700 0.17993 
0.00193 0.26733 0.18008 
0.00292 0.26756 0.18025 
0.00391 0.26789 0.18040 
0.00490 0.26823 0.18055 
0.00589 0.26856 0.18070 
0.00688 0.26878 0.18087 
0.00787 0.26912 0.18102 
0.00885 0.26934 0.18118 
0.00985 0.26967 0.18133 
0.01084 0.27001 0.18148 
0.01183 0.27023 0.18165 
0.01282 0.27057 0.18180 
0.01381 0.27090 0.18195 
0.01480 0.27124 0.18210 
0.01578 0.27135 0.18228 
0.01677 0.27168 0.18243 
0.01776 0.27190 0.18259 
0.01873 0.27167 0.18281 
0.01971 0.27133 0.18303 
0.02068 0.27076 0.18328 
0.02165 0.27019 0.18353 
0.02262 0.26974 0.18376 
0.02359 0.26939 0.18399 
0.02457 0.26928 0.18419 
0.02555 0.26905 0.18440 
0.02653 0.26915 0.18458 
0.02752 0.26926 0.18475 
0.02850 0.26949 0.18491 
0.02950 0.26971 0.18508 
0.03048 0.26993 0.18524 
0.03147 0.27027 0.18539 
0.03247 0.27094 0.18551 
0.03346 0.27150 0.18563 
0.03445 0.27161 0.18581 
0.03544 0.27172 0.18599 
0.03642 0.27160 0.18619 
0.03741 0.27194 0.18634 
0.03840 0.27227 0.18649 
0.03939 0.27261 0.18664 
0.04038 0.27305 0.18678 
0.04137 0.27339 0.18693 
0.04236 0.27373 0.18708 
0.04336 0.27417 0.18722 
0.04435 0.27462 0.18736 
0.04534 0.27496 0.18751 
0.04634 0.27552 0.18764 
0.04734 0.27642 0.18773 
0.04834 0.27721 0.18784 
0.04934 0.27799 0.18794 
0.05034 0.27878 0.18804 
0.05134 0.27934 0.18817 
0.05234 0.28002 0.18828 
0.05334 0.28069 0.18840 
0.05434 0.28148 0.18850 
0.05534 0.28215 0.18862 
0.05634 0.28294 0.18871 
0.05735 0.28384 0.18881 
0.05835 0.28474 0.18890 
0.05936 0.28564 0.18899 
0.06035 0.28655 0.18908 
0.06137 0.28778 0.18913 
0.06235 0.28870 0.18923 
0.06339 0.28997 0.18926 
0.06439 0.29092 0.18932 
0.06542 0.29211 0.18936 
0.06647 0.29343 0.18926 
0.06746 0.29497 0.18936 
-0.03388 0.26452 0.21285 
-0.07285 0.28663 0.25205 
-0.07031 0.28750 0.24413 
-0.08291 0.29516 0.23571 
-0.04690 0.24892 0.17417 
-0.04594 0.24817 0.17443 
-0.04496 0.24796 0.17465 
-0.04398 0.24795 0.17483 
-0.04299 0.24806 0.17501 
-0.04201 0.24826 0.17517 
-0.04101 0.24858 0.17533 
-0.04003 0.24868 0.17551 
-0.03904 0.24900 0.17566 
-0.03805 0.24921 0.17583 
-0.03707 0.24941 0.17600 
-0.03608 0.24973 0.17615 
-0.03509 0.24994 0.17632 
-0.03410 0.25015 0.17648 
-0.03311 0.25046 0.17664 
-0.03213 0.25078 0.17679 
-0.03113 0.25098 0.17696 
-0.03015 0.25109 0.17714 
-0.02916 0.25140 0.17729 
-0.02817 0.25172 0.17745 
-0.02717 0.25237 0.17757 
-0.02616 0.25372 0.17761 
-0.02516 0.25440 0.17772 
-0.02414 0.25609 0.17773 
-0.01522 0.25910 0.17909 
-0.01424 0.25898 0.17929 
-0.01327 0.25875 0.17951 
-0.01229 0.25852 0.17972 
-0.01131 0.25841 0.17992 
-0.01034 0.25784 0.18017 
-0.00937 0.25738 0.18040 
-0.00838 0.25749 0.18058 
-0.00740 0.25771 0.18074 
-0.00640 0.25816 0.18088 
-0.00541 0.25861 0.18102 
-0.00429 0.26425 0.18060 
-0.00330 0.26459 0.18076 
-0.00231 0.26481 0.18092 
-0.00132 0.26503 0.18108 
-0.00033 0.26560 0.18121 
0.00066 0.26593 0.18136 
0.00165 0.26626 0.18151 
0.00264 0.26649 0.18168 
0.00363 0.26682 0.18183 
0.00462 0.26704 0.18199 
0.00561 0.26738 0.18214 
0.00660 0.26771 0.18229 
0.00759 0.26805 0.18245 
0.00858 0.26838 0.18260 
0.00957 0.26849 0.18278 
0.01056 0.26894 0.18291 
0.01155 0.26928 0.18307 
0.01254 0.26950 0.18323 
0.01353 0.26983 0.18338 
0.01452 0.27017 0.18353 
0.01550 0.27028 0.18371 
0.01650 0.27061 0.18386 
0.01748 0.27083 0.18402 
0.01847 0.27106 0.18419 
0.01945 0.27094 0.18439 
0.02042 0.27071 0.18460 
0.02140 0.27025 0.18484 
0.02237 0.26980 0.18507 
0.02334 0.26934 0.18531 
0.02432 0.26911 0.18552 
0.02529 0.26888 0.18573 
0.02627 0.26876 0.18593 
0.02725 0.26876 0.18612 
0.02824 0.26887 0.18629 
0.02922 0.26898 0.18647 
0.03021 0.26909 0.18665 
0.03120 0.26942 0.18680 
0.03219 0.26964 0.18696 
0.03318 0.26998 0.18711 
0.03417 0.27020 0.18728 
0.03516 0.27054 0.18743 
0.03614 0.27076 0.18759 
0.03714 0.27121 0.18773 
0.03813 0.27143 0.18790 
0.03912 0.27176 0.18805 
0.04010 0.27210 0.18820 
0.04109 0.27243 0.18835 
0.04209 0.27277 0.18850 
0.04308 0.27310 0.18865 
0.04407 0.27355 0.18880 
0.04507 0.27411 0.18892 
0.04606 0.27468 0.18905 
0.04707 0.27580 0.18912 
0.04808 0.27670 0.18921 
0.04908 0.27749 0.18931 
0.05008 0.27816 0.18942 
0.05108 0.27895 0.18953 
0.05207 0.27951 0.18966 
0.05310 0.28015 0.18977 
0.05408 0.28097 0.18988 
0.05508 0.28164 0.18999 
0.05608 0.28243 0.19009 
0.05708 0.28321 0.19020 
0.05807 0.28401 0.19030 
0.05908 0.28490 0.19039 
0.06008 0.28593 0.19047 
0.06109 0.28694 0.19055 
0.06211 0.28806 0.19062 
0.06311 0.28907 0.19070 
0.06412 0.29014 0.19075 
0.06513 0.29134 0.19078 
0.06614 0.29241 0.19084 
0.06718 0.29383 0.19084 
0.06817 0.29552 0.19082 
-0.06104 0.28894 0.25423 
-0.03437 0.26455 0.21544 
-0.07895 0.28692 0.24670 
-0.04052 0.26361 0.21032 
-0.04717 0.24824 0.17554 
-0.04620 0.24771 0.17578 
-0.04522 0.24749 0.17599 
-0.04424 0.24727 0.17620 
-0.04326 0.24738 0.17638 
-0.04227 0.24748 0.17656 
-0.04129 0.24758 0.17673 
-0.04030 0.24789 0.17689 
-0.03931 0.24800 0.17707 
-0.03832 0.24831 0.17722 
-0.03734 0.24852 0.17739 
-0.03635 0.24873 0.17755 
-0.03536 0.24905 0.17771 
-0.03437 0.24925 0.17788 
-0.03339 0.24946 0.17804 
-0.03240 0.24967 0.17821 
-0.03141 0.24999 0.17836 
-0.03042 0.25019 0.17853 
-0.02944 0.25040 0.17870 
-0.02845 0.25061 0.17886 
-0.02745 0.25103 0.17901 
-0.02647 0.25124 0.17917 
-0.01254 0.25870 0.18101 
-0.01156 0.25847 0.18122 
-0.01059 0.25790 0.18147 
-0.00964 0.25688 0.18177 
-0.00866 0.25642 0.18200 
-0.00767 0.25676 0.18216 
-0.00668 0.25698 0.18232 
-0.00569 0.25754 0.18245 
-0.00469 0.25822 0.18256 
-0.00358 0.26341 0.18219 
-0.00259 0.26363 0.18236 
-0.00160 0.26408 0.18250 
-0.00061 0.26441 0.18265 
0.00038 0.26475 0.18280 
0.00137 0.26508 0.18295 
0.00236 0.26542 0.18310 
0.00335 0.26564 0.18327 
0.00434 0.26598 0.18342 
0.00533 0.26631 0.18357 
0.00632 0.26665 0.18372 
0.00731 0.26687 0.18389 
0.00830 0.26731 0.18403 
0.00929 0.26754 0.18419 
0.01028 0.26776 0.18436 
0.01127 0.26798 0.18452 
0.01226 0.26843 0.18466 
0.01325 0.26865 0.18482 
0.01424 0.26910 0.18496 
0.01522 0.26921 0.18514 
0.01622 0.26954 0.18529 
0.01721 0.26988 0.18544 
0.01820 0.27010 0.18561 
0.01919 0.27043 0.18576 
0.02017 0.27043 0.18594 
0.02114 0.27020 0.18616 
0.02212 0.26986 0.18638 
0.02309 0.26951 0.18660 
0.02406 0.26917 0.18683 
0.02504 0.26894 0.18704 
0.02602 0.26871 0.18725 
0.02700 0.26860 0.18745 
0.02798 0.26848 0.18765 
0.02896 0.26847 0.18784 
0.02994 0.26847 0.18803 
0.03093 0.26869 0.18819 
0.03191 0.26880 0.18837 
0.03290 0.26902 0.18853 
0.03389 0.26924 0.18870 
0.03488 0.26958 0.18885 
0.03587 0.26980 0.18901 
0.03686 0.27014 0.18916 
0.03785 0.27047 0.18931 
0.03884 0.27069 0.18948 
0.03983 0.27103 0.18963 
0.04082 0.27148 0.18977 
0.04181 0.27181 0.18992 
0.04280 0.27215 0.19008 
0.04380 0.27260 0.19021 
0.04479 0.27316 0.19034 
0.04579 0.27406 0.19043 
0.04680 0.27518 0.19050 
0.04781 0.27620 0.19058 
0.04886 0.27705 0.19066 
0.04984 0.27772 0.19079 
0.05085 0.27851 0.19089 
0.05184 0.27919 0.19100 
0.05282 0.27989 0.19113 
0.05382 0.28057 0.19124 
0.05481 0.28126 0.19135 
0.05583 0.28202 0.19146 
0.05681 0.28271 0.19158 
0.05781 0.28350 0.19168 
0.05881 0.28440 0.19177 
0.05981 0.28520 0.19188 
0.06081 0.28633 0.19194 
0.06182 0.28734 0.19202 
0.06283 0.28847 0.19209 
0.06383 0.28937 0.19218 
0.06484 0.29057 0.19222 
0.06588 0.29186 0.19223 
0.06688 0.29306 0.19227 
0.06793 0.29472 0.19225 
-0.03087 0.26866 0.22385 
-0.06279 0.26824 0.21509 
-0.05863 0.29352 0.24189 
-0.05891 0.29313 0.24323 
-0.06932 0.28761 0.24431 
-0.02893 0.26684 0.21898 
-0.04548 0.24723 0.17732 
-0.04450 0.24702 0.17753 
-0.04352 0.24691 0.17773 
-0.04254 0.24690 0.17792 
-0.04155 0.24690 0.17810 
-0.04057 0.24700 0.17828 
-0.03958 0.24721 0.17845 
-0.03859 0.24742 0.17861 
-0.03761 0.24763 0.17878 
-0.03662 0.24784 0.17895 
-0.03563 0.24805 0.17911 
-0.03465 0.24825 0.17928 
-0.03366 0.24846 0.17945 
-0.03267 0.24867 0.17961 
-0.03168 0.24899 0.17977 
-0.03069 0.24930 0.17992 
-0.02971 0.24940 0.18010 
-0.02872 0.24961 0.18027 
-0.02773 0.25014 0.18040 
-0.02674 0.25024 0.18058 
-0.01085 0.25774 0.18279 
-0.00990 0.25638 0.18313 
-0.00893 0.25581 0.18338 
-0.00795 0.25569 0.18357 
-0.00696 0.25592 0.18374 
-0.00596 0.25648 0.18387 
-0.00497 0.25715 0.18398 
-0.00394 0.25895 0.18398 
-0.00287 0.26245 0.18380 
-0.00188 0.26279 0.18395 
-0.00089 0.26335 0.18408 
0.00010 0.26368 0.18423 
0.00109 0.26390 0.18439 
0.00209 0.26435 0.18453 
0.00307 0.26457 0.18469 
0.00407 0.26491 0.18485 
0.00506 0.26524 0.18500 
0.00605 0.26558 0.18515 
0.00703 0.26580 0.18532 
0.00802 0.26613 0.18547 
0.00901 0.26647 0.18562 
0.01000 0.26669 0.18578 
0.01099 0.26691 0.18595 
0.01198 0.26725 0.18610 
0.01297 0.26758 0.18625 
0.01396 0.26792 0.18640 
0.01495 0.26825 0.18655 
0.01594 0.26848 0.18672 
0.01693 0.26881 0.18687 
0.01792 0.26914 0.18702 
0.01891 0.26937 0.18719 
0.01990 0.26970 0.18734 
0.02089 0.26992 0.18750 
0.02186 0.26981 0.18770 
0.02285 0.26969 0.18790 
0.02382 0.26935 0.18813 
0.02480 0.26912 0.18834 
0.02577 0.26889 0.18855 
0.02675 0.26877 0.18875 
0.02773 0.26865 0.18895 
0.02871 0.26854 0.18915 
0.02969 0.26842 0.18935 
0.03067 0.26841 0.18954 
0.03165 0.26830 0.18974 
0.03263 0.26841 0.18991 
0.03362 0.26851 0.19009 
0.03461 0.26862 0.19027 
0.03559 0.26885 0.19043 
0.03658 0.26918 0.19058 
0.03757 0.26940 0.19075 
0.03856 0.26974 0.19089 
0.03955 0.27007 0.19105 
0.04054 0.27041 0.19120 
0.04153 0.27074 0.19135 
0.04253 0.27119 0.19149 
0.04352 0.27164 0.19163 
0.04451 0.27197 0.19178 
0.04552 0.27322 0.19184 
0.04653 0.27445 0.19190 
0.04755 0.27558 0.19196 
0.04858 0.27645 0.19205 
0.04958 0.27724 0.19216 
0.05060 0.27823 0.19224 
0.05159 0.27903 0.19235 
0.05258 0.27982 0.19245 
0.05358 0.28049 0.19257 
0.05455 0.28109 0.19269 
0.05556 0.28175 0.19281 
0.05655 0.28244 0.19293 
0.05755 0.28322 0.19303 
0.05856 0.28400 0.19313 
0.05954 0.28481 0.19324 
0.06054 0.28582 0.19332 
0.06155 0.28695 0.19339 
0.06257 0.28807 0.19346 
0.06356 0.28898 0.19355 
0.06453 0.28995 0.19362 
0.06560 0.29133 0.19363 
0.06661 0.29264 0.19365 
-0.05539 0.26640 0.20320 
-0.05351 0.26496 0.21978 
-0.03210 0.26674 0.21975 
-0.07352 0.28677 0.24495 
-0.07254 0.28689 0.24513 
-0.04593 0.26363 0.21732 
-0.03954 0.26370 0.21050 
-0.04548 0.24785 0.17842 
-0.07430 0.28603 0.24902 
-0.05444 0.26591 0.20343 
-0.04279 0.24665 0.17924 
-0.04181 0.24654 0.17944 
-0.04083 0.24653 0.17963 
-0.03984 0.24653 0.17981 
-0.03886 0.24663 0.17999 
-0.03787 0.24674 0.18017 
-0.03689 0.24705 0.18032 
-0.03590 0.24715 0.18050 
-0.03492 0.24736 0.18067 
-0.03393 0.24757 0.18083 
-0.03294 0.24778 0.18100 
-0.03196 0.24799 0.18117 
-0.03097 0.24820 0.18134 
-0.02998 0.24840 0.18150 
-0.02899 0.24861 0.18167 
-0.02800 0.24893 0.18183 
-0.02703 0.24882 0.18202 
-0.01016 0.25588 0.18449 
-0.00919 0.25531 0.18473 
-0.00822 0.25497 0.18496 
-0.00723 0.25508 0.18514 
-0.00624 0.25541 0.18529 
-0.00524 0.25620 0.18539 
-0.00422 0.25766 0.18542 
-0.00315 0.26138 0.18522 
-0.00215 0.26183 0.18536 
-0.00116 0.26228 0.18550 
-0.00017 0.26261 0.18566 
0.00082 0.26284 0.18582 
0.00180 0.26306 0.18598 
0.00280 0.26351 0.18612 
0.00379 0.26384 0.18628 
0.00478 0.26417 0.18643 
0.00577 0.26440 0.18659 
0.00676 0.26484 0.18673 
0.00775 0.26507 0.18689 
0.00874 0.26529 0.18706 
0.00972 0.26562 0.18721 
0.01071 0.26585 0.18737 
0.01170 0.26618 0.18753 
0.01269 0.26651 0.18768 
0.01368 0.26685 0.18783 
0.01468 0.26719 0.18798 
0.01566 0.26752 0.18813 
0.01665 0.26774 0.18830 
0.01764 0.26819 0.18844 
0.01863 0.26841 0.18861 
0.01962 0.26875 0.18875 
0.02061 0.26897 0.18892 
0.02160 0.26930 0.18907 
0.02259 0.26952 0.18923 
0.02357 0.26952 0.18942 
0.02455 0.26940 0.18962 
0.02552 0.26917 0.18984 
0.02651 0.26906 0.19004 
0.02748 0.26894 0.19023 
0.02846 0.26871 0.19045 
0.02944 0.26871 0.19064 
0.03042 0.26859 0.19083 
0.03140 0.26847 0.19104 
0.03238 0.26835 0.19123 
0.03337 0.26835 0.19142 
0.03434 0.26823 0.19162 
0.03533 0.26823 0.19181 
0.03631 0.26834 0.19199 
0.03730 0.26845 0.19216 
0.03829 0.26878 0.19231 
0.03927 0.26900 0.19248 
0.04026 0.26934 0.19263 
0.04125 0.26967 0.19278 
0.04225 0.27001 0.19293 
0.04324 0.27046 0.19307 
0.04423 0.27091 0.19321 
0.04524 0.27214 0.19327 
0.04626 0.27350 0.19332 
0.04728 0.27496 0.19335 
0.04831 0.27572 0.19345 
0.04931 0.27673 0.19353 
0.05029 0.27766 0.19363 
0.05131 0.27865 0.19371 
0.05231 0.27968 0.19379 
0.05332 0.28057 0.19388 
0.05431 0.28125 0.19400 
0.05529 0.28173 0.19413 
0.05630 0.28238 0.19425 
0.05729 0.28306 0.19437 
0.05828 0.28374 0.19449 
0.05928 0.28453 0.19459 
0.06030 0.28553 0.19467 
0.06130 0.28655 0.19475 
0.06230 0.28767 0.19482 
0.06331 0.28880 0.19489 
0.06427 0.28964 0.19499 
0.06532 0.29092 0.19501 
0.06635 0.29234 0.19502 
-0.08510 0.35437 0.20598 
-0.03855 0.26382 0.21067 
-0.06071 0.29001 0.24725 
-0.06176 0.28852 0.25271 
-0.06715 0.27108 0.21133 
-0.03610 0.26406 0.21381 
-0.05710 0.26756 0.20143 
-0.07201 0.28813 0.24238 
-0.05347 0.26547 0.20366 
-0.03708 0.26392 0.21363 
-0.04206 0.24660 0.18073 
-0.04108 0.24639 0.18094 
-0.04010 0.24627 0.18114 
-0.03912 0.24616 0.18134 
-0.03814 0.24616 0.18152 
-0.03715 0.24626 0.18170 
-0.03617 0.24626 0.18189 
-0.03518 0.24647 0.18206 
-0.03420 0.24668 0.18222 
-0.03321 0.24678 0.18240 
-0.03223 0.24699 0.18257 
-0.03124 0.24730 0.18272 
-0.03025 0.24740 0.18290 
-0.02927 0.24751 0.18308 
-0.02828 0.24782 0.18324 
-0.02729 0.24814 0.18339 
-0.02632 0.24760 0.18363 
-0.01042 0.25549 0.18584 
-0.00946 0.25458 0.18612 
-0.00848 0.25424 0.18635 
-0.00750 0.25401 0.18656 
-0.00652 0.25434 0.18671 
-0.00552 0.25491 0.18684 
-0.00451 0.25603 0.18691 
-0.00342 0.26043 0.18663 
-0.00244 0.26054 0.18681 
-0.00145 0.26087 0.18696 
-0.00045 0.26143 0.18709 
0.00054 0.26177 0.18724 
0.00153 0.26210 0.18739 
0.00252 0.26244 0.18755 
0.00351 0.26266 0.18771 
0.00450 0.26311 0.18785 
0.00549 0.26344 0.18800 
0.00648 0.26366 0.18817 
0.00747 0.26400 0.18832 
0.00846 0.26433 0.18847 
0.00945 0.26467 0.18862 
0.01044 0.26489 0.18879 
0.01143 0.26523 0.18894 
0.01242 0.26556 0.18909 
0.01341 0.26590 0.18925 
0.01440 0.26623 0.18940 
0.01539 0.26645 0.18956 
0.01638 0.26679 0.18971 
0.01737 0.26712 0.18987 
0.01836 0.26745 0.19002 
0.01935 0.26768 0.19018 
0.02033 0.26801 0.19033 
0.02133 0.26835 0.19049 
0.02232 0.26868 0.19064 
0.02331 0.26890 0.19081 
0.02430 0.26924 0.19096 
0.02528 0.26923 0.19115 
0.02626 0.26934 0.19132 
0.02724 0.26923 0.19152 
0.02822 0.26911 0.19172 
0.02920 0.26899 0.19192 
0.03018 0.26888 0.19212 
0.03116 0.26876 0.19232 
0.03214 0.26864 0.19252 
0.03312 0.26852 0.19272 
0.03409 0.26829 0.19293 
0.03507 0.26818 0.19313 
0.03605 0.26795 0.19334 
0.03703 0.26783 0.19354 
0.03801 0.26771 0.19374 
0.03900 0.26794 0.19390 
0.03999 0.26827 0.19406 
0.04098 0.26861 0.19421 
0.04197 0.26906 0.19435 
0.04296 0.26939 0.19450 
0.04396 0.26984 0.19464 
0.04496 0.27063 0.19475 
0.04598 0.27220 0.19477 
0.04699 0.27355 0.19482 
0.04797 0.27496 0.19509 
0.04902 0.27625 0.19491 
0.05001 0.27739 0.19498 
0.05101 0.27841 0.19506 
0.05202 0.27966 0.19511 
0.05304 0.28078 0.19518 
0.05405 0.28155 0.19529 
0.05505 0.28212 0.19541 
0.05602 0.28248 0.19556 
0.05703 0.28302 0.19569 
0.05802 0.28371 0.19581 
0.05902 0.28438 0.19593 
0.06002 0.28527 0.19602 
0.06102 0.28628 0.19611 
0.06205 0.28750 0.19616 
0.06303 0.28854 0.19624 
0.06401 0.28958 0.19631 
0.06505 0.29075 0.19636 
-0.08716 0.35855 0.20080 
-0.03288 0.26481 0.21301 
-0.06153 0.26823 0.20860 
0.05481 0.29445 0.17202 
-0.06580 0.28769 0.25191 
-0.05254 0.26473 0.21999 
-0.05789 0.26580 0.21085 
-0.05741 0.26634 0.21894 
-0.08265 0.29535 0.23435 
-0.04912 0.26384 0.21803 
-0.08278 0.29201 0.24013 
-0.07691 0.28848 0.24142 
-0.07103 0.28812 0.24257 
-0.06710 0.28822 0.24332 
-0.05818 0.29329 0.24477 
-0.05376 0.26437 0.21577 
-0.06301 0.26867 0.21097 
-0.09092 0.36648 0.19337 
-0.03932 0.24621 0.18260 
-0.03837 0.24605 0.18282 
-0.03743 0.24587 0.18304 
-0.03648 0.24571 0.18326 
-0.03545 0.24579 0.18342 
-0.03447 0.24578 0.18360 
-0.03348 0.24599 0.18377 
-0.03250 0.24609 0.18395 
-0.03150 0.24641 0.18411 
-0.03052 0.24651 0.18428 
-0.02953 0.24661 0.18446 
-0.02854 0.24693 0.18462 
-0.02756 0.24713 0.18479 
-0.02657 0.24745 0.18495 
-0.02560 0.24713 0.18516 
-0.00972 0.25408 0.18748 
-0.00875 0.25363 0.18772 
-0.00778 0.25306 0.18796 
-0.00679 0.25328 0.18813 
-0.00580 0.25373 0.18827 
-0.00479 0.25474 0.18835 
-0.00370 0.25925 0.18807 
-0.00272 0.25936 0.18824 
-0.00172 0.25981 0.18839 
-0.00073 0.26037 0.18851 
0.00026 0.26070 0.18866 
0.00126 0.26104 0.18882 
0.00224 0.26137 0.18897 
0.00323 0.26171 0.18912 
0.00423 0.26204 0.18928 
0.00521 0.26226 0.18944 
0.00621 0.26271 0.18958 
0.00719 0.26304 0.18973 
0.00818 0.26327 0.18990 
0.00917 0.26360 0.19005 
0.01016 0.26382 0.19021 
0.01115 0.26427 0.19035 
0.01214 0.26449 0.19052 
0.01313 0.26483 0.19067 
0.01412 0.26516 0.19082 
0.01511 0.26550 0.19098 
0.01610 0.26572 0.19114 
0.01709 0.26605 0.19129 
0.01808 0.26639 0.19144 
0.01907 0.26672 0.19160 
0.02006 0.26706 0.19175 
0.02105 0.26728 0.19192 
0.02204 0.26773 0.19205 
0.02303 0.26806 0.19221 
0.02402 0.26840 0.19236 
0.02501 0.26862 0.19252 
0.02600 0.26895 0.19268 
0.02699 0.26917 0.19284 
0.02797 0.26928 0.19302 
0.02895 0.26928 0.19321 
0.02994 0.26916 0.19340 
0.03092 0.26905 0.19361 
0.03189 0.26893 0.19380 
0.03287 0.26881 0.19401 
0.03384 0.26847 0.19423 
0.03482 0.26812 0.19445 
0.03579 0.26767 0.19469 
0.03676 0.26721 0.19492 
0.03774 0.26687 0.19514 
0.03872 0.26687 0.19533 
0.03971 0.26709 0.19550 
0.04070 0.26754 0.19564 
0.04169 0.26787 0.19579 
0.04269 0.26832 0.19593 
0.04368 0.26866 0.19608 
0.04468 0.26955 0.19618 
0.04569 0.27079 0.19623 
0.04674 0.27235 0.19625 
0.04772 0.27406 0.19628 
0.04872 0.27566 0.19629 
0.04974 0.27700 0.19635 
0.05073 0.27837 0.19638 
0.05181 0.28003 0.19640 
0.05278 0.28118 0.19645 
0.05383 0.28204 0.19656 
0.05480 0.28252 0.19669 
0.05578 0.28288 0.19683 
0.05678 0.28331 0.19698 
0.05778 0.28386 0.19711 
0.05877 0.28443 0.19724 
0.05977 0.28521 0.19735 
0.06075 0.28613 0.19744 
0.06175 0.28726 0.19751 
0.06273 0.28837 0.19754 
0.06375 0.28952 0.19765 
-0.06592 0.27037 0.21028 
-0.04397 0.26327 0.21237 
-0.04690 0.26514 0.22239 
-0.04051 0.26503 0.22093 
-0.06762 0.28716 0.24605 
-0.07160 0.28664 0.25091 
-0.08251 0.29297 0.23873 
-0.06328 0.26825 0.21769 
-0.04469 0.26478 0.22149 
-0.06189 0.29086 0.24278 
-0.04691 0.26345 0.21180 
-0.07920 0.28697 0.24804 
-0.03190 0.26502 0.21318 
-0.04517 0.26580 0.22400 
-0.08179 0.29099 0.24037 
-0.07594 0.28824 0.24161 
-0.07967 0.28753 0.24513 
-0.06611 0.28844 0.24349 
-0.03746 0.26394 0.21089 
-0.03658 0.26404 0.21103 
-0.06504 0.28862 0.23804 
-0.04618 0.26335 0.21328 
-0.08657 0.29712 0.23348 
-0.04813 0.26350 0.21290 
-0.02864 0.26908 0.22293 
-0.02963 0.26892 0.22271 
-0.04348 0.26338 0.21513 
-0.03472 0.24542 0.18494 
-0.03374 0.24531 0.18513 
-0.03276 0.24531 0.18532 
-0.03177 0.24541 0.18550 
-0.03079 0.24551 0.18568 
-0.02980 0.24582 0.18584 
-0.02882 0.24593 0.18601 
-0.02783 0.24614 0.18618 
-0.02684 0.24656 0.18633 
-0.02585 0.24698 0.18648 
-0.02487 0.24666 0.18669 
-0.00999 0.25324 0.18888 
-0.00903 0.25245 0.18915 
-0.00805 0.25201 0.18938 
-0.00706 0.25233 0.18954 
-0.00607 0.25289 0.18967 
-0.00507 0.25368 0.18977 
-0.00403 0.25593 0.18972 
-0.00299 0.25841 0.18965 
-0.00200 0.25874 0.18981 
-0.00100 0.25930 0.18994 
-0.00001 0.25964 0.19009 
0.00098 0.26008 0.19023 
0.00197 0.26031 0.19039 
0.00296 0.26075 0.19053 
0.00395 0.26097 0.19070 
0.00494 0.26131 0.19085 
0.00593 0.26165 0.19100 
0.00692 0.26198 0.19116 
0.00791 0.26231 0.19131 
0.00890 0.26253 0.19147 
0.00989 0.26298 0.19161 
0.01088 0.26320 0.19178 
0.01187 0.26354 0.19193 
0.01286 0.26376 0.19210 
0.01385 0.26410 0.19225 
0.01484 0.26443 0.19240 
0.01582 0.26476 0.19255 
0.01682 0.26510 0.19271 
0.01781 0.26543 0.19286 
0.01880 0.26577 0.19301 
0.01978 0.26599 0.19318 
0.02077 0.26632 0.19333 
0.02177 0.26666 0.19348 
0.02276 0.26699 0.19363 
0.02375 0.26744 0.19377 
0.02474 0.26778 0.19393 
0.02573 0.26811 0.19408 
0.02672 0.26844 0.19423 
0.02771 0.26878 0.19439 
0.02870 0.26900 0.19455 
0.02968 0.26922 0.19471 
0.03067 0.26922 0.19490 
0.03165 0.26910 0.19510 
0.03262 0.26887 0.19531 
0.03360 0.26853 0.19553 
0.03456 0.26796 0.19578 
0.03552 0.26717 0.19605 
0.03649 0.26615 0.19635 
0.03746 0.26580 0.19657 
0.03844 0.26580 0.19676 
0.03943 0.26591 0.19693 
0.04042 0.26636 0.19707 
0.04141 0.26658 0.19724 
0.04240 0.26703 0.19738 
0.04340 0.26748 0.19752 
0.04439 0.26804 0.19765 
0.04541 0.26973 0.19766 
0.04653 0.27137 0.19765 
0.04748 0.27309 0.19768 
0.04840 0.27483 0.19771 
0.04947 0.27673 0.19769 
-0.02841 0.26840 0.22166 
-0.07140 0.28979 0.23965 
0.05260 0.28187 0.19772 
0.05354 0.28262 0.19779 
0.05454 0.28306 0.19793 
0.05556 0.28347 0.19810 
0.05655 0.28381 0.19825 
0.05753 0.28417 0.19839 
0.05854 0.28470 0.19854 
0.05951 0.28529 0.19866 
0.06049 0.28610 0.19876 
0.06149 0.28710 0.19884 
0.06249 0.28822 0.19892 
-0.03560 0.26425 0.21120 
-0.03930 0.26366 0.21457 
-0.05157 0.26457 0.22019 
-0.06414 0.28911 0.24384 
-0.05133 0.26428 0.21892 
-0.06512 0.28878 0.24367 
-0.07207 0.28631 0.24803 
-0.08056 0.29126 0.23918 
-0.07566 0.28933 0.24022 
-0.08153 0.29195 0.23897 
-0.07957 0.29059 0.23942 
-0.07762 0.28979 0.23983 
-0.07469 0.28910 0.24042 
-0.06978 0.28874 0.24138 
-0.06584 0.28906 0.24211 
-0.03878 0.26559 0.22257 
-0.08213 0.29581 0.23159 
-0.07343 0.29006 0.23921 
-0.04520 0.26331 0.21347 
-0.08082 0.29020 0.24060 
-0.03952 0.26512 0.22112 
-0.07386 0.29233 0.23622 
-0.03461 0.26447 0.21137 
-0.04305 0.27810 0.18081 
-0.03362 0.26459 0.21155 
-0.08012 0.28889 0.24219 
-0.03264 0.26483 0.21172 
-0.07424 0.28740 0.24339 
-0.06637 0.28782 0.24487 
-0.05844 0.29241 0.24617 
-0.06335 0.28945 0.23973 
-0.03584 0.24593 0.18594 
-0.03497 0.24527 0.18625 
-0.03400 0.24463 0.18649 
-0.03303 0.24452 0.18669 
-0.03205 0.24451 0.18688 
-0.03105 0.24472 0.18705 
-0.03007 0.24493 0.18721 
-0.02908 0.24514 0.18738 
-0.02809 0.24535 0.18755 
-0.02711 0.24556 0.18772 
-0.02612 0.24577 0.18789 
-0.02513 0.24597 0.18806 
-0.02415 0.24608 0.18823 
-0.01125 0.25209 0.19011 
-0.01026 0.25230 0.19028 
-0.00931 0.25080 0.19061 
-0.00832 0.25112 0.19077 
-0.00733 0.25144 0.19092 
-0.00634 0.25186 0.19107 
-0.00534 0.25273 0.19118 
-0.00431 0.25475 0.19115 
-0.00326 0.25746 0.19106 
-0.00227 0.25768 0.19123 
-0.00127 0.25835 0.19135 
-0.00029 0.25868 0.19150 
0.00070 0.25902 0.19165 
0.00169 0.25935 0.19180 
0.00268 0.25958 0.19197 
0.00368 0.26002 0.19211 
0.00467 0.26047 0.19225 
0.00565 0.26058 0.19243 
0.00664 0.26103 0.19256 
0.00764 0.26136 0.19272 
0.00862 0.26170 0.19287 
0.00962 0.26203 0.19302 
0.01060 0.26225 0.19319 
0.01159 0.26259 0.19334 
0.01258 0.26281 0.19351 
0.01357 0.26325 0.19365 
0.01456 0.26348 0.19381 
0.01555 0.26370 0.19398 
0.01654 0.26415 0.19412 
0.01753 0.26437 0.19428 
0.01852 0.26470 0.19444 
0.01951 0.26503 0.19459 
0.02050 0.26537 0.19474 
0.02149 0.26571 0.19489 
0.02248 0.26604 0.19505 
0.02347 0.26638 0.19520 
0.02446 0.26671 0.19535 
0.02546 0.26716 0.19549 
0.02644 0.26749 0.19565 
0.02743 0.26782 0.19580 
0.02843 0.26816 0.19595 
0.02941 0.26838 0.19612 
0.03040 0.26872 0.19627 
0.03139 0.26882 0.19644 
0.03236 0.26859 0.19666 
0.03334 0.26825 0.19688 
0.03430 0.26746 0.19715 
0.03525 0.26599 0.19749 
0.03620 0.26474 0.19780 
0.03718 0.26463 0.19800 
0.03816 0.26462 0.19819 
0.03915 0.26484 0.19836 
0.04014 0.26518 0.19851 
0.04113 0.26562 0.19865 
0.04212 0.26585 0.19882 
0.04312 0.26630 0.19896 
0.04411 0.26697 0.19908 
0.04512 0.26809 0.19915 
0.04615 0.26990 0.19915 
-0.07245 0.28994 0.23941 
-0.05251 0.26510 0.20387 
-0.05131 0.26616 0.22417 
-0.03955 0.26374 0.21585 
-0.04225 0.26336 0.21403 
-0.05302 0.26433 0.21725 
-0.00470 0.24322 0.20959 
-0.03732 0.26506 0.22019 
-0.04151 0.26350 0.21550 
-0.05230 0.26443 0.21872 
-0.05153 0.26478 0.20409 
-0.06247 0.26893 0.20297 
0.05928 0.28567 0.19994 
0.06026 0.28636 0.20005 
-0.06151 0.26837 0.20321 
-0.06056 0.26798 0.20341 
-0.05957 0.26757 0.20365 
-0.05059 0.26447 0.22039 
-0.05597 0.26506 0.21127 
-0.05861 0.26731 0.20385 
-0.03042 0.26567 0.21609 
-0.07358 0.28620 0.25055 
-0.07326 0.28740 0.24357 
-0.06683 0.28884 0.24193 
-0.07076 0.28886 0.24118 
-0.05762 0.26699 0.20408 
-0.08774 0.35267 0.20872 
-0.04025 0.26621 0.22492 
-0.07664 0.28956 0.24003 
-0.07370 0.28898 0.24062 
-0.03977 0.26545 0.22238 
-0.04298 0.26382 0.21787 
-0.06090 0.29142 0.24295 
-0.05863 0.26617 0.21469 
-0.07972 0.29429 0.23498 
-0.05663 0.26660 0.20431 
-0.05568 0.26629 0.20451 
-0.05468 0.26589 0.20474 
-0.04629 0.27685 0.18188 
-0.04529 0.27671 0.18208 
-0.04431 0.27649 0.18231 
-0.04341 0.27630 0.18259 
-0.04237 0.27584 0.18298 
-0.05371 0.26553 0.20495 
-0.06737 0.27162 0.20720 
-0.03905 0.26361 0.21328 
-0.06539 0.28805 0.24505 
-0.05744 0.29358 0.24629 
-0.05275 0.26516 0.20516 
-0.03235 0.26718 0.22099 
-0.05177 0.26484 0.20538 
-0.03427 0.24405 0.18784 
-0.03329 0.24362 0.18806 
-0.03231 0.24362 0.18826 
-0.03132 0.24383 0.18842 
-0.03034 0.24404 0.18859 
-0.02935 0.24424 0.18876 
-0.02836 0.24445 0.18893 
-0.02738 0.24466 0.18910 
-0.02639 0.24498 0.18925 
-0.02540 0.24519 0.18942 
-0.02441 0.24550 0.18958 
-0.02343 0.24539 0.18978 
-0.02244 0.24571 0.18994 
-0.01552 0.24781 0.19106 
-0.01453 0.24812 0.19122 
-0.01355 0.24812 0.19141 
-0.01255 0.24886 0.19153 
-0.01156 0.24917 0.19169 
-0.01057 0.24960 0.19183 
-0.00958 0.24991 0.19199 
-0.00859 0.25012 0.19216 
-0.00761 0.25044 0.19232 
-0.00661 0.25096 0.19246 
-0.00561 0.25171 0.19258 
-0.00460 0.25335 0.19261 
-0.00354 0.25639 0.19248 
-0.00255 0.25673 0.19263 
-0.00155 0.25728 0.19277 
-0.00056 0.25773 0.19290 
0.00043 0.25807 0.19306 
0.00142 0.25840 0.19321 
0.00241 0.25862 0.19338 
0.00340 0.25907 0.19352 
0.00439 0.25929 0.19368 
0.00538 0.25974 0.19382 
0.00637 0.26007 0.19398 
0.00736 0.26029 0.19414 
0.00835 0.26063 0.19429 
0.00934 0.26096 0.19445 
0.01033 0.26119 0.19461 
0.01132 0.26163 0.19475 
0.01231 0.26185 0.19492 
0.01330 0.26219 0.19507 
0.01429 0.26252 0.19522 
0.01528 0.26286 0.19538 
0.01627 0.26319 0.19553 
0.01726 0.26353 0.19568 
0.01825 0.26386 0.19584 
0.01924 0.26408 0.19600 
0.02023 0.26442 0.19615 
0.02122 0.26475 0.19631 
0.02221 0.26509 0.19646 
0.02320 0.26553 0.19660 
0.02419 0.26587 0.19675 
0.02518 0.26620 0.19691 
0.02617 0.26654 0.19706 
0.02716 0.26687 0.19721 
0.02815 0.26721 0.19736 
0.02914 0.26754 0.19752 
0.03013 0.26765 0.19769 
0.03111 0.26787 0.19786 
0.03209 0.26787 0.19804 
0.03306 0.26741 0.19828 
0.03403 0.26650 0.19856 
0.03493 0.26300 0.19911 
0.03591 0.26311 0.19929 
0.03690 0.26322 0.19946 
0.03788 0.26344 0.19962 
0.03888 0.26378 0.19978 
0.03986 0.26411 0.19993 
0.04085 0.26445 0.20009 
0.04185 0.26489 0.20023 
0.04284 0.26534 0.20037 
0.04384 0.26590 0.20050 
0.04484 0.26691 0.20058 
0.04586 0.26849 0.20061 
-0.05080 0.26459 0.20559 
-0.04983 0.26435 0.20580 
-0.08887 0.35597 0.20371 
-0.08142 0.29537 0.23316 
-0.03536 0.26434 0.21527 
-0.06269 0.28888 0.24692 
-0.05972 0.29079 0.24740 
-0.08745 0.35349 0.20722 
-0.04961 0.26444 0.22058 
-0.06520 0.26919 0.21725 
-0.04761 0.26696 0.22618 
-0.04885 0.26412 0.20600 
-0.04787 0.26393 0.20621 
-0.04690 0.26387 0.20640 
-0.06170 0.28944 0.24709 
-0.08540 0.35284 0.20751 
-0.06157 0.26783 0.21401 
-0.06816 0.28841 0.25426 
-0.04592 0.26374 0.20659 
-0.04493 0.26373 0.20678 
-0.08913 0.35842 0.20047 
-0.05010 0.26393 0.21784 
-0.05108 0.26405 0.21765 
-0.07860 0.29013 0.23962 
-0.08160 0.29618 0.22885 
-0.08453 0.29691 0.22824 
-0.03929 0.26477 0.21984 
-0.03215 0.26502 0.21448 
-0.05546 0.26553 0.21937 
-0.07822 0.28664 0.24824 
-0.07067 0.29113 0.23548 
-0.04569 0.26345 0.21605 
-0.06486 0.28940 0.24229 
-0.05991 0.29232 0.24309 
-0.04662 0.26701 0.22633 
-0.04395 0.26374 0.20697 
-0.04950 0.27604 0.18278 
-0.04852 0.27598 0.18292 
-0.04756 0.27557 0.18319 
-0.04658 0.27531 0.18339 
-0.04557 0.27498 0.18365 
-0.04462 0.27477 0.18386 
-0.04367 0.27457 0.18412 
-0.04266 0.27444 0.18444 
-0.04297 0.26374 0.20716 
-0.04199 0.26375 0.20735 
-0.04100 0.26383 0.20752 
-0.04198 0.26553 0.22328 
-0.04002 0.26395 0.20770 
-0.05352 0.26429 0.21448 
-0.03903 0.26405 0.20788 
-0.03551 0.24327 0.18902 
-0.03454 0.24295 0.18923 
-0.03356 0.24262 0.18945 
-0.03258 0.24272 0.18963 
-0.03159 0.24293 0.18979 
-0.03060 0.24314 0.18997 
-0.02962 0.24335 0.19014 
-0.02863 0.24356 0.19030 
-0.02764 0.24377 0.19047 
-0.02665 0.24419 0.19062 
-0.02566 0.24451 0.19078 
-0.02467 0.24471 0.19095 
-0.02369 0.24492 0.19112 
-0.02270 0.24513 0.19129 
-0.02172 0.24523 0.19146 
-0.02073 0.24544 0.19163 
-0.01974 0.24565 0.19180 
-0.01875 0.24597 0.19196 
-0.01777 0.24618 0.19213 
-0.01678 0.24649 0.19229 
-0.01579 0.24681 0.19245 
-0.01480 0.24712 0.19261 
-0.01381 0.24765 0.19275 
-0.01281 0.24807 0.19290 
-0.01183 0.24839 0.19306 
-0.01084 0.24870 0.19322 
-0.00985 0.24891 0.19338 
-0.00886 0.24923 0.19355 
-0.00787 0.24954 0.19370 
-0.00688 0.24997 0.19385 
-0.00588 0.25071 0.19398 
-0.00487 0.25240 0.19401 
-0.00382 0.25510 0.19392 
-0.00282 0.25577 0.19404 
-0.00182 0.25633 0.19417 
-0.00083 0.25667 0.19432 
0.00016 0.25711 0.19446 
0.00115 0.25734 0.19463 
0.00214 0.25767 0.19478 
0.00313 0.25801 0.19494 
0.00412 0.25845 0.19508 
0.00511 0.25879 0.19523 
0.00610 0.25901 0.19540 
0.00709 0.25945 0.19554 
0.00807 0.25968 0.19570 
0.00907 0.26001 0.19586 
0.01006 0.26034 0.19601 
0.01105 0.26057 0.19617 
0.01204 0.26090 0.19633 
0.01302 0.26124 0.19648 
0.01401 0.26157 0.19663 
0.01501 0.26191 0.19678 
0.01599 0.26213 0.19695 
0.01699 0.26257 0.19709 
0.01797 0.26280 0.19726 
0.01897 0.26324 0.19740 
0.01995 0.26347 0.19756 
0.02095 0.26391 0.19770 
0.02193 0.26413 0.19787 
0.02293 0.26447 0.19802 
0.02391 0.26480 0.19818 
0.02491 0.26525 0.19832 
0.02590 0.26547 0.19848 
0.02689 0.26581 0.19864 
0.02787 0.26603 0.19880 
0.02886 0.26647 0.19894 
0.02986 0.26692 0.19908 
0.03084 0.26714 0.19925 
0.03169 0.26116 0.20005 
0.03267 0.26127 0.20022 
0.03365 0.26138 0.20040 
0.03464 0.26160 0.20057 
0.03563 0.26182 0.20073 
0.03662 0.26216 0.20088 
0.03761 0.26238 0.20105 
0.03860 0.26271 0.20120 
0.03959 0.26305 0.20135 
0.04058 0.26349 0.20149 
0.04157 0.26394 0.20164 
0.04256 0.26428 0.20179 
0.04356 0.26495 0.20191 
0.04457 0.26596 0.20200 
0.04558 0.26720 0.20205 
-0.03805 0.26415 0.20806 
-0.05400 0.26444 0.21170 
-0.06860 0.27200 0.20828 
-0.05499 0.26474 0.21149 
-0.06420 0.26932 0.21204 
-0.03289 0.26541 0.21833 
-0.02621 0.26738 0.22078 
-0.08844 0.35387 0.20701 
-0.04862 0.26440 0.22075 
-0.08644 0.35314 0.20733 
-0.03706 0.26427 0.20824 
-0.04174 0.26520 0.22203 
-0.06826 0.28974 0.23882 
-0.03608 0.26438 0.20842 
-0.06890 0.29034 0.23721 
-0.06743 0.28891 0.25578 
-0.02767 0.26903 0.22309 
-0.06129 0.26761 0.21273 
-0.05056 0.26454 0.20430 
-0.07189 0.29155 0.23662 
-0.03066 0.26605 0.21735 
-0.02770 0.26619 0.21789 
-0.04498 0.26331 0.21215 
-0.05154 0.26688 0.22542 
-0.04957 0.26424 0.20452 
-0.07790 0.28882 0.24121 
-0.06275 0.28808 0.25254 
-0.07574 0.29334 0.23422 
-0.08472 0.29852 0.22385 
-0.06149 0.28856 0.25136 
-0.07332 0.28604 0.24921 
-0.07272 0.28898 0.24080 
-0.06879 0.28862 0.24157 
-0.06387 0.28985 0.24245 
-0.05595 0.26662 0.22189 
-0.07256 0.29223 0.23503 
-0.05080 0.27522 0.18404 
-0.04977 0.27509 0.18438 
-0.04879 0.27474 0.18460 
-0.04784 0.27420 0.18473 
-0.04685 0.27383 0.18507 
-0.04586 0.27362 0.18516 
-0.04490 0.27339 0.18537 
-0.04391 0.27337 0.18568 
-0.04294 0.27325 0.18588 
-0.04196 0.27280 0.18611 
-0.04100 0.27200 0.18638 
-0.05449 0.26453 0.21428 
-0.07771 0.28673 0.24555 
-0.06692 0.27090 0.21004 
-0.05717 0.26539 0.21236 
-0.06201 0.28858 0.25406 
-0.03578 0.24227 0.19040 
-0.03481 0.24183 0.19062 
-0.03383 0.24162 0.19083 
-0.03284 0.24172 0.19101 
-0.03186 0.24193 0.19118 
-0.03087 0.24214 0.19135 
-0.02988 0.24246 0.19151 
-0.02889 0.24277 0.19167 
-0.02791 0.24298 0.19184 
-0.02692 0.24319 0.19200 
-0.02593 0.24350 0.19216 
-0.02494 0.24382 0.19232 
-0.02395 0.24424 0.19248 
-0.02296 0.24456 0.19263 
-0.02198 0.24476 0.19280 
-0.02099 0.24497 0.19297 
-0.02000 0.24508 0.19315 
-0.01902 0.24539 0.19331 
-0.01803 0.24571 0.19347 
-0.01704 0.24592 0.19364 
-0.01605 0.24634 0.19379 
-0.01506 0.24665 0.19395 
-0.01407 0.24708 0.19410 
-0.01308 0.24729 0.19427 
-0.01209 0.24749 0.19444 
-0.01111 0.24770 0.19461 
-0.01012 0.24802 0.19476 
-0.00913 0.24823 0.19493 
-0.00814 0.24854 0.19509 
-0.00715 0.24896 0.19524 
-0.00615 0.24971 0.19537 
-0.00514 0.25119 0.19542 
-0.00409 0.25415 0.19533 
-0.00310 0.25471 0.19546 
-0.00210 0.25527 0.19559 
-0.00111 0.25572 0.19573 
-0.00012 0.25605 0.19588 
0.00087 0.25638 0.19604 
0.00187 0.25683 0.19618 
0.00286 0.25717 0.19633 
0.00384 0.25739 0.19650 
0.00483 0.25772 0.19665 
0.00582 0.25805 0.19680 
0.00681 0.25839 0.19696 
0.00780 0.25872 0.19711 
0.00880 0.25917 0.19725 
0.00978 0.25928 0.19743 
0.01077 0.25973 0.19757 
0.01177 0.26006 0.19772 
0.01275 0.26028 0.19789 
0.01374 0.26062 0.19804 
0.01473 0.26095 0.19819 
0.01572 0.26129 0.19835 
0.01671 0.26162 0.19850 
0.01770 0.26196 0.19865 
0.01869 0.26218 0.19882 
0.01968 0.26251 0.19897 
0.02067 0.26296 0.19911 
0.02166 0.26329 0.19927 
0.02265 0.26351 0.19943 
0.02364 0.26385 0.19959 
0.02463 0.26418 0.19974 
0.02562 0.26452 0.19989 
0.02661 0.26496 0.20003 
0.02760 0.26530 0.20019 
0.02859 0.26563 0.20034 
0.02943 0.25943 0.20116 
0.03042 0.25976 0.20131 
0.03140 0.25987 0.20149 
0.03239 0.26009 0.20165 
0.03338 0.26031 0.20182 
0.03437 0.26053 0.20199 
0.03535 0.26064 0.20216 
0.03634 0.26098 0.20231 
0.03734 0.26142 0.20246 
0.03832 0.26153 0.20263 
0.03932 0.26198 0.20278 
0.04031 0.26243 0.20292 
0.04130 0.26287 0.20306 
0.04229 0.26332 0.20321 
0.04329 0.26422 0.20330 
0.04430 0.26512 0.20339 
0.04531 0.26647 0.20344 
-0.06395 0.28805 0.24812 
-0.02547 0.26818 0.22222 
-0.02919 0.26546 0.21501 
-0.05836 0.26639 0.20803 
-0.07652 0.29349 0.23423 
-0.05896 0.29092 0.24893 
0.04906 0.29227 0.16970 
-0.02818 0.26741 0.22039 
-0.07159 0.29165 0.23525 
-0.06669 0.28944 0.25727 
-0.04860 0.26409 0.20472 
-0.05448 0.26521 0.21958 
-0.07477 0.28639 0.24612 
-0.08337 0.29589 0.23276 
-0.05693 0.26554 0.21641 
-0.08846 0.35708 0.20221 
-0.08751 0.35705 0.20235 
-0.05812 0.26578 0.21215 
-0.05915 0.26785 0.22256 
-0.06011 0.26803 0.22235 
-0.05132 0.26389 0.21360 
-0.05205 0.26418 0.21745 
-0.06286 0.29026 0.24263 
-0.03283 0.26805 0.22353 
-0.03854 0.26522 0.22130 
-0.04495 0.26367 0.21750 
-0.05302 0.26420 0.21191 
-0.06061 0.26758 0.21959 
-0.04099 0.26571 0.22347 
-0.06352 0.26886 0.21356 
-0.06109 0.26750 0.21682 
-0.05691 0.26536 0.21107 
-0.07174 0.28897 0.24099 
-0.06781 0.28873 0.24175 
-0.07129 0.28750 0.24394 
-0.05300 0.27511 0.18506 
-0.05200 0.27458 0.18536 
-0.05103 0.27423 0.18557 
-0.05005 0.27379 0.18583 
-0.04909 0.27339 0.18598 
-0.04814 0.27281 0.18621 
-0.04713 0.27265 0.18651 
-0.04615 0.27234 0.18663 
-0.04518 0.27220 0.18693 
-0.04420 0.27197 0.18714 
-0.04322 0.27185 0.18734 
-0.04224 0.27162 0.18755 
-0.04127 0.27128 0.18777 
-0.04029 0.27105 0.18798 
-0.04756 0.26396 0.20498 
-0.04716 0.26388 0.21841 
-0.04543 0.26430 0.22004 
-0.06741 0.28726 0.25028 
-0.03755 0.26554 0.22147 
-0.03508 0.24084 0.19200 
-0.03409 0.24072 0.19220 
-0.03311 0.24083 0.19238 
-0.03212 0.24093 0.19256 
-0.03114 0.24114 0.19272 
-0.03015 0.24145 0.19288 
-0.02916 0.24166 0.19306 
-0.02817 0.24198 0.19322 
-0.02718 0.24230 0.19337 
-0.02620 0.24261 0.19353 
-0.02521 0.24292 0.19369 
-0.02422 0.24324 0.19386 
-0.02323 0.24355 0.19401 
-0.02224 0.24387 0.19417 
-0.02125 0.24408 0.19434 
-0.02026 0.24450 0.19449 
-0.01928 0.24471 0.19466 
-0.01829 0.24502 0.19482 
-0.01730 0.24534 0.19499 
-0.01631 0.24565 0.19515 
-0.01532 0.24586 0.19531 
-0.01434 0.24607 0.19548 
-0.01335 0.24639 0.19564 
-0.01236 0.24660 0.19581 
-0.01138 0.24670 0.19599 
-0.01039 0.24702 0.19615 
-0.00940 0.24733 0.19631 
-0.00841 0.24765 0.19647 
-0.00742 0.24796 0.19663 
-0.00643 0.24849 0.19677 
-0.00542 0.24998 0.19683 
-0.00437 0.25286 0.19676 
-0.00336 0.25398 0.19684 
-0.00237 0.25432 0.19699 
-0.00138 0.25477 0.19713 
-0.00039 0.25521 0.19728 
0.00060 0.25543 0.19744 
0.00159 0.25588 0.19758 
0.00258 0.25621 0.19774 
0.00357 0.25655 0.19789 
0.00456 0.25688 0.19805 
0.00555 0.25722 0.19820 
0.00654 0.25744 0.19836 
0.00753 0.25789 0.19850 
0.00852 0.25811 0.19867 
0.00951 0.25844 0.19882 
0.01050 0.25878 0.19898 
0.01149 0.25911 0.19913 
0.01248 0.25945 0.19928 
0.01347 0.25978 0.19944 
0.01446 0.26000 0.19960 
0.01545 0.26045 0.19975 
0.01644 0.26078 0.19990 
0.01743 0.26100 0.20006 
0.01842 0.26134 0.20021 
0.01941 0.26167 0.20037 
0.02040 0.26189 0.20053 
0.02139 0.26223 0.20069 
0.02238 0.26256 0.20084 
0.02337 0.26301 0.20098 
0.02436 0.26334 0.20113 
0.02535 0.26379 0.20128 
0.02620 0.25792 0.20206 
0.02718 0.25780 0.20226 
0.02816 0.25803 0.20242 
0.02915 0.25825 0.20259 
0.03014 0.25836 0.20277 
0.03113 0.25869 0.20292 
0.03212 0.25891 0.20309 
0.03310 0.25913 0.20325 
0.03409 0.25947 0.20340 
0.03508 0.25980 0.20356 
0.03607 0.26003 0.20372 
0.03706 0.26036 0.20388 
0.03805 0.26069 0.20403 
0.03904 0.26114 0.20417 
0.04004 0.26170 0.20430 
0.04103 0.26226 0.20444 
0.04203 0.26293 0.20456 
0.04303 0.26372 0.20466 
0.04404 0.26473 0.20475 
0.04506 0.26642 0.20476 
-0.03611 0.26488 0.21909 
-0.04838 0.26353 0.21419 
-0.06788 0.27147 0.20981 
-0.08533 0.29658 0.23234 
-0.08258 0.29641 0.22864 
-0.05950 0.28979 0.25168 
-0.07093 0.29119 0.23683 
-0.08684 0.35551 0.20416 
-0.08017 0.28744 0.24784 
-0.05059 0.26381 0.21508 
-0.06315 0.28968 0.24400 
-0.03705 0.26658 0.22416 
-0.04665 0.26394 0.20510 
-0.06176 0.26808 0.20991 
-0.07117 0.29062 0.23824 
-0.07218 0.29090 0.23801 
-0.07529 0.28605 0.24883 
-0.05908 0.26690 0.20649 
-0.03335 0.26673 0.22084 
-0.06693 0.28790 0.25313 
-0.07774 0.28691 0.25110 
-0.04567 0.26383 0.20530 
-0.04859 0.26690 0.22597 
-0.06951 0.28925 0.24000 
-0.06264 0.29076 0.24121 
-0.06018 0.29147 0.24448 
-0.06249 0.28812 0.25119 
-0.06426 0.26869 0.21747 
-0.05426 0.26445 0.21299 
-0.04544 0.26331 0.21477 
-0.06835 0.27216 0.20696 
-0.06033 0.26704 0.21296 
-0.04469 0.26382 0.20548 
-0.04126 0.26448 0.21948 
-0.06603 0.28916 0.23785 
-0.08137 0.28812 0.24897 
-0.05421 0.27456 0.18633 
-0.05325 0.27397 0.18655 
-0.05228 0.27330 0.18682 
-0.05133 0.27278 0.18699 
-0.05035 0.27254 0.18718 
-0.04938 0.27185 0.18743 
-0.04840 0.27162 0.18765 
-0.04741 0.27159 0.18793 
-0.04643 0.27113 0.18816 
-0.04546 0.27090 0.18837 
-0.04448 0.27079 0.18857 
-0.04350 0.27056 0.18878 
-0.04252 0.27044 0.18898 
-0.04154 0.27032 0.18918 
-0.04056 0.27021 0.18938 
-0.03958 0.27009 0.18958 
-0.03861 0.26997 0.18978 
-0.07652 0.28635 0.24998 
-0.06963 0.28776 0.25125 
-0.08581 0.35572 0.20428 
-0.03534 0.23983 0.19337 
-0.03436 0.23983 0.19356 
-0.03337 0.23993 0.19374 
-0.03239 0.24003 0.19392 
-0.03140 0.24024 0.19409 
-0.03041 0.24056 0.19425 
-0.02943 0.24077 0.19442 
-0.02844 0.24108 0.19458 
-0.02745 0.24129 0.19475 
-0.02646 0.24161 0.19491 
-0.02547 0.24203 0.19506 
-0.02449 0.24224 0.19523 
-0.02350 0.24255 0.19539 
-0.02251 0.24276 0.19556 
-0.02152 0.24318 0.19571 
-0.02053 0.24339 0.19588 
-0.01954 0.24371 0.19604 
-0.01856 0.24402 0.19621 
-0.01757 0.24434 0.19636 
-0.01658 0.24455 0.19653 
-0.01559 0.24497 0.19669 
-0.01460 0.24507 0.19686 
-0.01362 0.24539 0.19702 
-0.01263 0.24560 0.19719 
-0.01164 0.24591 0.19735 
-0.01065 0.24612 0.19753 
-0.00967 0.24633 0.19770 
-0.00868 0.24665 0.19785 
-0.00769 0.24686 0.19802 
-0.00670 0.24717 0.19819 
-0.00571 0.24780 0.19832 
-0.00466 0.25142 0.19820 
-0.00363 0.25303 0.19824 
-0.00265 0.25326 0.19841 
-0.00165 0.25392 0.19853 
-0.00066 0.25437 0.19867 
0.00033 0.25459 0.19883 
0.00132 0.25493 0.19899 
0.00231 0.25526 0.19914 
0.00330 0.25560 0.19930 
0.00429 0.25593 0.19945 
0.00528 0.25627 0.19960 
0.00627 0.25660 0.19976 
0.00726 0.25682 0.19992 
0.00825 0.25716 0.20008 
0.00924 0.25760 0.20022 
0.01023 0.25794 0.20037 
0.01122 0.25816 0.20054 
0.01221 0.25849 0.20069 
0.01320 0.25883 0.20084 
0.01419 0.25916 0.20100 
0.01518 0.25950 0.20115 
0.01617 0.25983 0.20130 
0.01716 0.26016 0.20146 
0.01814 0.26039 0.20162 
0.01913 0.26072 0.20178 
0.02013 0.26117 0.20192 
0.02112 0.26139 0.20208 
0.02211 0.26184 0.20222 
0.02296 0.25597 0.20301 
0.02394 0.25608 0.20318 
0.02493 0.25619 0.20336 
0.02591 0.25652 0.20351 
0.02690 0.25652 0.20370 
0.02789 0.25685 0.20386 
0.02887 0.25707 0.20402 
0.02986 0.25741 0.20417 
0.03085 0.25751 0.20435 
0.03184 0.25796 0.20449 
0.03283 0.25818 0.20466 
0.03382 0.25863 0.20480 
0.03481 0.25885 0.20497 
0.03580 0.25919 0.20512 
0.03679 0.25963 0.20526 
0.03779 0.26019 0.20539 
0.03878 0.26064 0.20553 
0.03977 0.26131 0.20566 
0.04077 0.26199 0.20577 
0.04177 0.26266 0.20590 
0.04277 0.26356 0.20599 
0.04379 0.26491 0.20604 
-0.03384 0.26766 0.22335 
-0.08912 0.35498 0.20531 
-0.03830 0.26489 0.22002 
-0.06787 0.28687 0.24742 
-0.06884 0.27206 0.20958 
-0.07575 0.28650 0.24593 
-0.05987 0.26763 0.22107 
-0.04471 0.26346 0.21623 
-0.06159 0.26781 0.21939 
-0.08784 0.35563 0.20397 
-0.05838 0.26591 0.21342 
-0.06410 0.28832 0.23829 
-0.08222 0.29400 0.23732 
-0.06340 0.29021 0.24101 
-0.08623 0.29816 0.22641 
-0.05913 0.26681 0.21724 
-0.06523 0.28809 0.25486 
-0.06425 0.28820 0.25505 
-0.08547 0.35747 0.20271 
-0.04370 0.26380 0.20567 
-0.03680 0.26629 0.22289 
-0.04176 0.26368 0.21677 
-0.07037 0.28682 0.24974 
-0.08125 0.29327 0.23754 
-0.06853 0.28924 0.24019 
-0.06170 0.29151 0.24128 
-0.04344 0.26641 0.22563 
-0.07087 0.28749 0.25241 
-0.05328 0.26424 0.21320 
-0.03312 0.26477 0.21431 
-0.06498 0.28779 0.25353 
-0.06003 0.28946 0.25441 
-0.08034 0.29605 0.22769 
-0.08113 0.29551 0.23182 
-0.07725 0.28639 0.24844 
-0.04320 0.26585 0.22439 
-0.05546 0.27416 0.18748 
-0.05453 0.27321 0.18771 
-0.05354 0.27245 0.18802 
-0.05258 0.27206 0.18819 
-0.05161 0.27149 0.18844 
-0.05065 0.27100 0.18862 
-0.04965 0.27066 0.18887 
-0.04867 0.27053 0.18916 
-0.04769 0.27030 0.18938 
-0.04671 0.26996 0.18960 
-0.04574 0.26984 0.18980 
-0.04475 0.26972 0.19000 
-0.04378 0.26938 0.19022 
-0.04280 0.26926 0.19041 
-0.04182 0.26926 0.19060 
-0.04084 0.26903 0.19081 
-0.03986 0.26902 0.19100 
-0.03888 0.26902 0.19119 
-0.03790 0.26879 0.19140 
-0.03692 0.26868 0.19160 
-0.05718 0.26592 0.21768 
-0.03560 0.23904 0.19473 
-0.03463 0.23882 0.19494 
-0.03364 0.23893 0.19511 
-0.03265 0.23903 0.19529 
-0.03167 0.23935 0.19545 
-0.03068 0.23945 0.19563 
-0.02969 0.23977 0.19579 
-0.02870 0.24019 0.19594 
-0.02772 0.24040 0.19611 
-0.02673 0.24071 0.19627 
-0.02574 0.24092 0.19645 
-0.02475 0.24134 0.19660 
-0.02377 0.24155 0.19677 
-0.02277 0.24187 0.19693 
-0.02179 0.24218 0.19709 
-0.02080 0.24250 0.19725 
-0.01981 0.24281 0.19741 
-0.01882 0.24313 0.19757 
-0.01784 0.24334 0.19774 
-0.01685 0.24365 0.19790 
-0.01586 0.24386 0.19808 
-0.01487 0.24428 0.19823 
-0.01388 0.24449 0.19839 
-0.01290 0.24459 0.19858 
-0.01191 0.24491 0.19873 
-0.01092 0.24512 0.19891 
-0.00994 0.24533 0.19908 
-0.00895 0.24565 0.19923 
-0.00796 0.24585 0.19941 
-0.00697 0.24617 0.19957 
-0.00599 0.24627 0.19975 
-0.00500 0.24669 0.19990 
-0.00402 0.24680 0.20008 
-0.00292 0.25244 0.19979 
-0.00193 0.25275 0.19995 
-0.00093 0.25331 0.20008 
0.00006 0.25376 0.20022 
0.00105 0.25398 0.20039 
0.00204 0.25454 0.20052 
0.00303 0.25476 0.20069 
0.00402 0.25498 0.20085 
0.00501 0.25543 0.20100 
0.00600 0.25565 0.20116 
0.00699 0.25598 0.20131 
0.00798 0.25632 0.20147 
0.00897 0.25677 0.20161 
0.00996 0.25699 0.20177 
0.01095 0.25721 0.20194 
0.01194 0.25754 0.20210 
0.01293 0.25799 0.20224 
0.01392 0.25832 0.20239 
0.01491 0.25855 0.20255 
0.01589 0.25888 0.20271 
0.01689 0.25933 0.20285 
0.01788 0.25966 0.20300 
0.01887 0.25999 0.20316 
0.01971 0.25424 0.20393 
0.02069 0.25401 0.20413 
0.02169 0.25446 0.20428 
0.02267 0.25468 0.20444 
0.02366 0.25490 0.20461 
0.02464 0.25490 0.20480 
0.02564 0.25523 0.20495 
0.02662 0.25545 0.20512 
0.02761 0.25579 0.20527 
0.02860 0.25601 0.20544 
0.02959 0.25634 0.20559 
0.03058 0.25668 0.20574 
0.03157 0.25712 0.20589 
0.03256 0.25746 0.20604 
0.03356 0.25791 0.20619 
0.03454 0.25835 0.20633 
0.03554 0.25880 0.20647 
0.03653 0.25936 0.20660 
0.03753 0.25992 0.20673 
0.03852 0.26059 0.20685 
0.03952 0.26139 0.20695 
0.04050 0.26231 0.20702 
0.04153 0.26341 0.20712 
0.04253 0.26477 0.20715 
-0.04003 0.26430 0.21839 
-0.06109 0.26827 0.22214 
-0.07548 0.28688 0.24456 
-0.05571 0.26610 0.22063 
-0.02720 0.26736 0.22061 
-0.03782 0.26433 0.21747 
-0.06913 0.28663 0.24859 
-0.04612 0.26831 0.22906 
-0.05595 0.26512 0.21663 
-0.06048 0.28910 0.25152 
-0.06495 0.26914 0.21596 
-0.05885 0.26627 0.21063 
-0.06230 0.26792 0.21790 
-0.03187 0.26834 0.22367 
-0.03708 0.26472 0.21892 
-0.06300 0.28824 0.25389 
-0.07945 0.28716 0.24938 
-0.08205 0.29027 0.24177 
-0.03632 0.26541 0.22036 
-0.04493 0.26518 0.22275 
-0.08063 0.28801 0.24494 
-0.06868 0.28993 0.23589 
-0.07930 0.29189 0.23800 
-0.08028 0.29255 0.23776 
-0.06754 0.28933 0.24037 
-0.04296 0.26537 0.22312 
-0.04222 0.26592 0.22455 
-0.06890 0.28843 0.25274 
-0.04272 0.26389 0.20584 
0.00573 0.24285 0.21292 
-0.06059 0.26728 0.21424 
-0.03433 0.26628 0.22068 
-0.05936 0.26647 0.21319 
-0.05864 0.27502 0.18816 
-0.05764 0.27405 0.18851 
-0.05680 0.27387 0.18847 
-0.05574 0.27276 0.18895 
-0.05479 0.27216 0.18916 
-0.05384 0.27135 0.18942 
-0.05285 0.27080 0.18968 
-0.05188 0.27013 0.18994 
-0.05090 0.26971 0.19009 
-0.04993 0.26946 0.19040 
-0.04896 0.26939 0.19052 
-0.04797 0.26912 0.19081 
-0.04699 0.26900 0.19101 
-0.04601 0.26877 0.19122 
-0.04503 0.26854 0.19143 
-0.04406 0.26820 0.19165 
-0.04308 0.26820 0.19184 
-0.04210 0.26808 0.19204 
-0.04112 0.26808 0.19223 
-0.04013 0.26796 0.19243 
-0.03916 0.26795 0.19261 
-0.03817 0.26784 0.19281 
-0.03719 0.26784 0.19300 
-0.07115 0.28800 0.25368 
-0.03587 0.23825 0.19608 
-0.03489 0.23804 0.19629 
-0.03391 0.23793 0.19648 
-0.03292 0.23803 0.19666 
-0.03193 0.23834 0.19682 
-0.03094 0.23855 0.19699 
-0.02996 0.23887 0.19715 
-0.02897 0.23908 0.19733 
-0.02798 0.23950 0.19748 
-0.02699 0.23971 0.19765 
-0.02601 0.24002 0.19781 
-0.02502 0.24034 0.19797 
-0.02403 0.24066 0.19813 
-0.02304 0.24087 0.19830 
-0.02205 0.24118 0.19846 
-0.02107 0.24139 0.19864 
-0.02008 0.24181 0.19879 
