# .PCD v0.7 - Point Cloud Data file format
VERSION 0.7
FIELDS x y z
SIZE 4 4 4
TYPE F F F
COUNT 1 1 1
WIDTH 1703
HEIGHT 1
VIEWPOINT 0 0 0 1 0 0 0
POINTS 1703
DATA ascii
80.327179 51.430534 32.361465
71.848282 52.026234 61.723381
76.023582 53.938381 101.30219
78.530052 65.426178 89.640739
82.559288 50.081863 96.990875
68.087357 51.254372 85.777641
75.904144 50 94.139275
74.109642 55.645973 40.930122
69.707306 50 94.165665
69.282623 51.38718 49.929878
75.828186 57.491055 31.318348
69.521576 50 97.135376
76.472588 62.977257 88.731102
71.5009 63.916683 72.716484
74.04541 60.909145 30.511932
78.518463 65.567169 56.918591
80.972916 51.358788 23.359179
73.82 53.381241 101.64111
74.071571 60.583023 45.703159
67.400002 50.396935 113.56221
75.981689 54.399342 51.185669
71.372498 64.240601 93.582077
72.631348 50 32.908119
78.14463 52.028671 46.478363
75.84494 56.702568 45.64209
73.810837 62.44149 116.09975
75.8358 58.622334 112.73534
73.235313 52.620083 58.110916
74.170494 58.038864 71.301193
78.468147 66.179276 83.82576
71.420639 64.82634 63.369305
74.781326 50 28.310186
74.566345 50 61.954674
73.808563 62.4468 102.66962
70.982895 50 40.387371
70.826767 51.67535 100.76936
77.648087 52.199234 50.527225
74.082367 55.167332 46.814007
82.092621 50 46.336548
79.099312 50 56.762405
72.474411 67.38446 73.505768
75.827934 57.387218 119.34757
79.425171 50 34.700794
78.197906 64.504898 20
77.890953 50 70.562836
73.999084 54.177933 86.378937
72.954803 50.225849 120
67.400002 50.696732 25.069422
77.607925 67.354614 74.434158
71.61982 66.601997 116.38935
75.919296 60.435307 59.198036
75.849197 56.546097 103.63126
80.181519 51.44672 69.576248
73.982788 61.592323 55.085663
73.772682 50 114.54026
78.16954 63.806801 97.404305
77.111076 52.40324 95.110916
68.143181 51.260578 68.298431
75.561096 67.59417 82.566284
74.731476 67.598419 85.752167
78.538513 65.323204 88.067757
81.942162 50 31.793919
71.521851 66.057564 105.87563
79.13269 50 69.734299
82.599998 50.23658 104.5544
80.79113 50 86.942169
79.757133 50 82.231277
76.617149 50 82.190491
79.80056 51.502556 40.007874
71.524673 66.091888 116.9815
70.858963 51.686409 105.61368
76.006752 54.110573 63.476685
69.857826 50 85.956291
75.196022 67.598846 37.913319
74.18187 67.588112 38.553547
75.922279 50 85.952454
75.368568 51.848686 20
75.920288 55.120766 67.885048
79.07283 50 96.85437
73.984322 54.007706 119.519
78.322945 51.967422 93.713799
74.280281 50 60.369621
79.57933 50 82.217789
68.656563 50 23.193001
74.699615 50 77.251106
67.942726 50 50.59375
77.661995 63.637573 23.914745
73.913284 62.108006 57.750408
78.894188 51.771202 36.229988
67.400002 50.606033 86.483727
75.366722 50 101.3026
76.632622 67.534019 57.829315
78.457291 66.274918 32.871891
80.54628 50 113.9644
73.211769 67.513718 95.129044
75.970421 54.529224 47.514057
73.89846 53.592682 48.288696
75.836472 58.643204 55.647011
77.827179 67.251556 94.014801
71.816055 63.811607 111.61644
75.226509 67.598663 90.44548
74.006119 61.337708 103.52806
68.933563 51.348396 21.283619
79.896164 50 114.60233
80.5438 50 57.571663
80.120911 50 84.374855
73.217041 67.514404 84.370453
74.221878 50 74.436256
80.750732 51.383476 73.418144
74.038666 60.982788 78.27417
78.483978 65.986649 50.837856
72.321342 67.327812 57.492668
80.121178 50 36.6427
71.744743 63.835381 41.805622
77.885254 52.117767 58.325958
76.10421 53.584442 32.193924
78.57267 51.881641 97.021332
69.449997 50 21.971054
73.600037 52.99696 39.071342
74.020294 61.183174 116.92785
77.382706 67.412567 73.183624
72.425873 63.608276 61.683784
82.578827 50.940926 40.285355
75.49437 50 96.97139
76.312248 50.121029 120
74.542801 50 47.337906
81.311623 51.321152 21.956364
76.623375 52.74659 67.934601
75.698456 50 91.51162
78.138046 52.03093 117.97641
73.974091 61.687172 71.960892
78.339752 50 21.133842
76.283585 50 114.29676
77.217628 67.445038 52.078407
79.96701 51.476059 26.512409
76.538109 67.546349 78.506897
77.496819 63.5825 102.7219
81.683968 50 23.653372
72.964645 52.441345 103.92967
73.999374 61.411415 102.87193
72.494362 63.585442 108.19913
79.35202 50 70.777077
74.167686 57.165676 110.84086
75.865845 56.07608 58.132225
76.330658 67.561409 107.90735
74.143913 56.293629 76.414711
76.153763 62.339592 80.04203
74.166542 58.54937 31.679264
76.674652 52.700684 99.16655
68.124252 50 61.537392
73.541161 51.437164 20
79.65332 50 47.259781
75.998703 54.20327 74.984802
73.759178 62.561806 100.44073
75.881569 59.825027 108.69067
73.811745 62.439381 94.944946
78.125313 67.009583 117.32759
76.706604 52.672081 50.730179
81.953339 50 23.690693
73.345322 63.206055 115.51724
76.213737 50 96.890846
68.366371 51.285374 23.829109
77.256477 63.502365 40.155479
74.172012 57.406616 79.688217
76.249741 53.234829 81.27932
74.214851 60.770691 20
72.27623 67.310577 27.352615
74.874039 50 105.55016
72.044533 63.735424 42.615368
73.938156 61.96307 57.096722
75.859558 59.362518 72.86422
67.507637 50.023632 61.566532
72.182831 63.689308 101.75027
77.784012 52.152546 107.44395
75.828949 57.801624 76.44136
74.441498 67.308479 120
76.139252 53.475994 92.211067
73.113861 63.370033 106.36227
78.096375 52.04525 110.28871
80.285561 50 110.34955
77.997635 52.079163 118.65577
72.379303 50 105.77377
70.661835 50 52.349838
75.836777 57.002075 102.40173
70.725868 51.641399 69.370041
71.73204 66.822449 63.00425
79.373894 50 70.803635
68.40696 51.289883 72.620239
73.916603 62.088676 100.32344
73.726753 53.191814 110.20308
82.599998 50.346954 50.51902
77.409065 50 42.157883
68.653549 51.317284 50.604012
76.194725 62.454445 107.4547
75.860954 59.406052 25.127403
71.555893 66.385994 75.592026
67.896957 51.233219 75.790871
76.153183 62.33762 59.945435
76.461205 67.552879 93.896103
78.69783 50 108.8492
74.14006 59.37442 59.284119
72.342819 52.196106 83.842148
78.506218 65.716095 56.24102
74.010666 54.311241 47.625065
75.830383 58.399834 37.438957
73.237999 50 63.355366
78.035446 50 115.4874
81.371033 50 24.452469
74.12896 59.654716 59.131851
77.107956 52.404812 30.00071
73.701675 63.979805 120
70.803902 50 61.98922
74.08638 60.34341 107.75982
75.123932 67.599266 85.103752
77.246201 50 35.470795
75.991196 61.308533 27.712605
75.972237 54.508308 29.639734
75.566666 51.427578 120
77.191978 52.362534 59.764019
76.005516 61.464684 83.008369
71.460625 65.312828 51.17347
67.400002 50.76667 69.83609
71.420364 64.822983 117.59938
75.851273 59.104576 115.75407
78.595505 64.630005 70.36322
73.978195 61.642437 81.601044
73.659752 67.560776 83.05085
75.985886 54.351074 22.446932
75.905457 60.211349 92.203918
79.746346 50 117.68223
77.753029 52.163185 89.174667
75.91774 55.165474 55.484512
82.123032 50 83.270874
76.621254 63.173035 111.5534
74.960007 67.599762 112.12226
75.110443 67.59935 118.85458
74.53817 50 96.242264
74.381935 67.593201 55.130196
74.071815 55.015785 113.40561
79.385529 50 62.29718
71.470734 65.435738 25.798786
78.142799 66.990402 93.427368
69.965103 51.465981 33.229523
77.259171 67.436874 75.462021
70.697891 51.632919 66.795128
67.400002 50.504082 81.081169
80.896126 50 28.924097
80.414192 51.420872 107.90233
74.068604 54.978813 101.20612
77.214157 52.351376 103.33501
68.943024 50 112.81771
71.202263 51.804333 109.46681
78.138062 50 42.416122
81.522285 51.297749 29.475521
76.825035 50 80.594604
76.056473 61.931782 44.719765
72.100693 52.112938 35.154831
74.129623 55.996628 62.764622
75.925575 60.536819 94.525597
72.12735 52.122097 93.748512
81.734123 51.274208 100.09497
72.488953 63.587246 49.78812
72.25499 63.665257 115.5791
75.8302 58.324554 54.357925
77.207481 63.486027 88.018333
75.8293 50 71.308571
75.866417 56.066105 46.812141
76.601685 63.150246 81.69429
80.117783 51.4538 85.069771
74.146828 59.163532 119.60406
72.756653 50 113.86196
75.881966 59.831478 86.153053
77.534439 52.23827 95.671486
79.296715 50 38.527912
80.516495 51.4095 36.698666
75.955559 54.700432 100.12128
68.701576 50 69.85273
75.830399 58.408379 49.352917
78.389816 51.94445 93.306046
75.774101 67.589355 106.00401
76.214569 62.500656 57.928566
75.869789 56.006851 70.807388
74.099312 55.464607 20.207592
80.840004 51.37355 72.108162
79.201691 51.665577 69.350311
76.556992 67.543884 60.658287
71.463928 65.352966 94.245605
75.833694 57.115181 54.814735
78.070923 50 37.480103
82.354767 50 102.20039
70.531952 50 33.767838
80.718269 51.387081 57.856133
70.734711 51.644077 23.165306
79.235184 50 102.81497
78.522491 63.927238 116.81586
76.258759 50 45.903091
82.599998 50.601318 21.357117
67.400002 50.635555 102.39651
73.768806 62.539383 96.786957
73.395226 52.763248 54.922726
69.530548 51.414726 58.99052
77.09536 63.448647 54.563652
80.715668 50 25.584686
73.675232 53.112606 110.04477
70.646347 50 42.018883
78.251503 66.847412 90.614868
81.210869 51.332352 26.781572
71.552071 66.356979 112.01923
75.942764 60.780163 63.594589
73.84803 50 45.751404
73.070732 52.50592 65.502533
74.126564 55.942928 103.61588
81.768112 51.270435 71.34169
73.987999 61.535469 54.054062
74.053955 60.816006 115.5563
76.11557 53.549263 96.976563
67.400002 50.410416 84.647453
81.473053 51.303215 31.161474
72.430099 67.369019 76.122498
67.644768 50 26.805069
70.69944 51.633392 69.145531
69.338135 51.393349 63.919895
76.128296 62.253563 105.9238
75.934914 54.938301 66.681053
68.024689 50 44.382069
77.491516 50 26.312653
77.715042 50 45.938015
70.898582 50 72.646835
78.059204 52.058014 70.594879
74.096848 55.421402 68.833855
74.160812 58.727856 27.887033
78.338394 51.962112 106.94583
75.916748 60.394089 44.589512
78.271301 66.817383 85.298508
72.309311 63.647141 61.185555
76.450287 52.936089 69.638252
71.518616 66.018234 78.241577
76.264137 53.205849 86.989632
73.286575 63.264088 60.232391
76.01384 61.5555 54.268837
81.27887 51.324791 61.693584
73.694778 67.563065 67.147461
75.190598 67.598877 38.713421
72.150597 63.700058 84.258141
77.48735 52.254444 20.418694
75.878822 55.848297 42.47538
72.330338 52.191826 97.509377
69.054512 50 44.969513
75.871323 59.65918 65.133102
71.126686 51.778374 97.700195
73.91346 62.106991 42.192917
75.65152 50 44.32225
75.84053 56.864273 117.68127
72.990532 50 46.238701
76.159225 62.358051 22.463591
76.248032 67.566803 119.04663
69.351242 51.394806 86.432762
76.495377 52.88348 60.176624
75.866234 59.570496 72.457718
73.748009 50.392887 120
71.973694 63.759045 113.35738
76.597816 63.145061 70.080635
71.211441 51.807484 44.198383
78.491272 51.909603 42.014961
74.137299 59.460743 24.965065
79.977043 51.474567 20.526285
75.59919 67.593521 58.794701
71.757523 51.995064 107.45594
81.133423 51.34095 89.764542
73.923859 67.578033 65.214935
72.649582 63.533691 115.07209
78.671051 50 34.171936
78.356194 63.869041 68.892822
68.68306 50 80.782761
73.997559 61.43116 78.548866
71.118332 51.775505 58.459869
78.329842 66.712784 113.44361
71.444984 65.122482 96.342155
68.73597 50 31.934904
73.694229 53.141819 33.652561
78.182686 50 41.987331
78.448868 66.34874 34.952618
76.081635 62.078396 86.730339
82.445305 50.005962 84.127792
75.874031 55.932472 49.147789
76.083145 53.649628 39.657375
67.733582 50 33.402557
77.930817 50 58.49509
79.396561 50 105.72563
79.922066 50 26.801744
76.553993 63.08633 54.422871
74.901833 66.546455 120
77.543442 63.598045 111.87861
76.964737 50 109.92717
71.777603 66.891571 70.619972
78.548721 65.199013 41.135704
69.728714 50 82.930298
76.906548 52.521404 67.114632
79.735329 50 110.16951
77.189377 63.479992 50.145718
81.601936 51.288895 47.474876
76.264389 67.565735 25.993259
75.992714 61.324959 78.685898
71.560051 66.401016 36.127293
77.932808 67.183601 74.96048
78.949814 50 24.924055
71.564949 51.36068 20
77.545914 63.598869 46.434025
72.024826 50.000004 43.311794
79.270401 50 60.695198
78.518921 65.561523 34.169167
73.909653 62.125336 84.600288
72.786217 50 100.67636
76.363205 62.802273 62.205482
77.696854 50 70.027634
80.209557 51.443607 89.191559
71.423477 64.860878 50.12595
74.168808 57.20694 114.77932
67.400002 50.817505 97.17157
69.909958 50 78.957756
75.159058 55.737896 120
73.955177 61.863911 111.88065
72.849449 63.467045 67.76754
78.57132 64.92421 30.889784
75.824341 67.587936 52.324142
75.978607 67.583603 62.937164
82.070091 50.602276 20
73.897484 62.166458 51.435509
68.338829 51.282318 90.831734
72.861946 63.462879 67.353355
75.862267 59.447102 50.628448
76.047707 61.880745 32.411106
69.340347 51.393593 99.530655
73.110054 50 92.369873
75.958908 54.661812 95.840881
73.944595 61.925568 77.796707
78.56311 51.884922 62.646225
75.859299 50 22.387699
81.181648 51.335594 102.89513
68.173149 50.000004 114.69504
71.366135 64.163307 78.805611
68.284782 51.27631 79.117592
78.49189 65.890411 80.964149
68.12796 51.258884 93.215492
75.844948 58.907295 80.805717
79.061821 51.713619 107.07755
75.953285 60.894905 93.10128
75.893234 60.013725 117.77447
70.482521 50 27.351231
78.511887 65.647194 24.847733
76.024185 61.668324 108.24863
78.214493 52.004677 86.714798
75.972855 54.501064 84.196991
77.204834 52.356068 92.220093
75.830406 58.409325 61.510052
75.473122 50 40.529976
71.942619 52.058647 58.463577
78.29007 66.788925 92.356972
82.589668 50.904427 86.783493
74.085762 55.22691 93.669067
74.147713 56.432968 28.724098
71.588203 63.887573 119.46145
79.389923 51.606323 27.389456
74.157913 56.807007 62.132477
73.896477 62.169853 71.442528
81.348198 50 95.940659
82.469025 51.11216 34.296867
73.977768 61.647095 109.64754
77.536346 50 24.20224
67.4431 50.078747 30.921291
67.400002 50.299797 61.449879
74.83213 50 76.951782
75.830124 58.293098 91.462395
76.182297 53.376431 116.36832
73.841721 62.354832 51.238209
67.400002 50.491112 119.54282
74.127617 55.961399 105.83938
75.631149 50 54.703609
79.039055 51.721443 91.698158
75.923027 60.495628 84.476837
75.840065 58.755142 73.527657
67.399994 50.652588 113.11241
77.301125 52.319061 24.33116
77.393372 50 35.884544
72.181969 50 81.612579
67.411682 50.915512 113.1611
75.85276 56.415581 119.78836
70.994774 51.733063 79.897926
75.952972 54.730255 82.18811
78.519722 65.551926 90.476471
76.717781 52.662079 108.64972
74.66523 67.598015 35.614586
76.249069 50 111.16815
80.654373 50 90.584595
75.841942 50 89.176178
81.831406 51.263401 47.419304
74.130287 56.008293 112.99925
73.501785 52.880165 43.298561
74.137352 59.458832 101.09383
76.018639 61.607891 54.255974
76.289322 67.564102 32.237286
75.84523 58.916168 43.683907
81.683609 51.279823 101.28929
75.873428 59.693268 33.216152
80.712105 50 68.558685
70.024033 50 117.32188
69.788834 51.443428 80.754242
76.577766 52.787426 24.80125
75.435371 52.755646 120
70.958282 50 81.944206
80.614365 50 48.333023
71.663643 66.698456 92.960457
75.865128 59.536156 112.38029
74.136833 59.475052 98.057785
72.665085 67.421967 99.38092
78.509018 50 106.09975
76.246567 62.575188 59.355267
78.750702 51.820488 85.559669
76.501602 67.55024 53.965942
77.034348 52.441849 27.7726
74.001999 54.211426 80.49173
71.1688 51.792835 98.54657
75.835953 58.627098 40.444191
80.956902 51.360565 31.041935
74.110504 55.6609 61.932598
72.258423 63.664104 73.640411
75.838799 58.715691 30.455334
73.840172 53.423599 32.819729
75.925529 60.536152 80.207352
80.560112 51.404655 90.79409
75.923286 60.499809 112.98613
76.840286 52.566559 57.95948
70.058243 50 113.64581
78.225243 50 29.920498
81.137512 50 28.427336
76.075241 53.674099 97.793983
76.042191 61.848602 54.512329
75.91433 55.225147 66.874031
79.028763 51.724976 62.102654
78.542488 65.274895 36.973984
75.853493 56.388596 66.643692
72.079147 50 118.22848
72.661674 63.529655 78.337875
81.329948 51.319115 119.88835
73.977745 61.647339 29.463718
75.972107 61.100281 47.143444
75.300423 67.598228 50.999985
80.366096 51.426208 51.422768
75.831886 57.181362 87.616699
71.325653 50 84.733688
82.482849 51.100063 81.909187
78.738174 50 26.088526
80.003067 50 110.24998
69.516312 51.413147 104.74182
82.599998 50.589603 73.829353
74.155884 58.881489 86.676888
74.039993 60.968246 98.993507
75.305779 50 35.75901
72.062943 52.099968 77.197083
76.872231 67.502762 46.694016
71.634842 66.635056 92.901955
75.884415 59.871136 83.031914
81.095474 50 102.49783
82.301735 51.203918 27.384159
78.528946 65.439636 106.62663
73.754868 53.244518 91.421196
77.818344 52.140755 70.433998
72.222832 50 48.83131
78.56662 64.981277 68.598053
77.202446 63.484348 96.682755
69.840965 51.449219 38.940109
81.977966 51.247116 22.107239
76.363586 50 117.06597
81.56102 51.293442 93.032547
77.50251 50 98.184448
74.116692 55.769676 51.28186
79.855446 51.492619 114.81876
78.430557 50 21.869238
71.659325 66.68895 88.726135
78.158813 50 108.00007
75.859612 59.364182 79.943588
74.008217 61.314919 35.592297
78.562378 65.032913 22.750427
75.856438 56.280617 32.589573
69.968369 50 104.13364
73.500107 63.013851 72.692665
77.341949 67.420593 51.793697
74.1045 67.585938 92.828438
79.455368 50 84.683464
74.146576 56.391186 61.623795
75.911003 55.283592 43.065132
71.60862 66.576523 65.318741
74.152359 56.603363 96.968277
75.864212 56.104759 24.220037
76.966896 67.49041 108.13098
80.484795 50 83.341797
74.032875 54.567158 29.98954
75.830826 58.467216 27.513885
78.731964 51.82692 56.954128
80.533844 51.40757 67.784134
74.387009 50 20.536001
79.383545 50 80.909348
76.432404 62.922184 101.31784
79.107338 51.697983 87.569145
81.905998 50 107.04842
71.903801 63.782352 46.874683
73.751831 53.238132 113.57092
75.870934 55.986847 85.151779
75.969398 61.070732 97.130577
72.490143 63.586849 48.329994
76.270752 62.631512 50.290146
74.16967 58.379421 29.133335
76.021889 61.643272 56.390327
74.171448 57.303688 101.82181
82.064125 51.237545 31.723003
75.845108 58.912418 62.958271
78.576225 64.864456 20.351698
76.093124 50 74.921944
76.527107 67.547783 74.927223
74.056465 54.838982 61.738911
78.170685 66.959824 51.55555
72.24015 50 37.574474
71.474854 50 66.553322
69.011497 50 60.274189
81.311928 50 24.17041
76.246307 53.242035 71.702644
74.15535 67.587364 100.38741
71.880836 63.790005 90.786102
74.170464 57.267876 96.107483
75.906906 55.355637 52.261921
75.830246 58.342545 106.1484
81.385773 50 113.91294
72.044037 67.165062 53.50642
75.892609 55.60643 48.73217
76.058197 61.941818 109.8998
78.36293 66.639954 24.439974
75.829346 57.968887 69.626579
79.577301 51.552662 31.139791
82.597237 50.842579 30.869183
74.168289 57.187981 35.952465
69.533371 51.415043 49.471256
76.05529 53.76461 117.83319
71.56601 51.929276 36.845856
77.294113 50 110.64536
74.029305 54.526024 87.452888
70.476608 50 59.804585
75.518837 50 59.005825
71.552292 66.358902 74.433907
81.880508 50 44.543564
74.072868 55.027962 58.444042
78.527527 63.929562 81.06189
77.564568 50 37.144352
71.560898 50 45.166084
67.959915 50 58.62957
78.476486 63.909145 32.197166
72.721024 67.432976 113.81576
78.039597 63.763477 63.570786
78.764847 50 72.227493
68.422836 50 79.704941
79.189697 51.669697 28.540083
74.245247 67.589897 101.98003
72.82917 52.373173 33.905972
75.828026 57.422356 25.530849
71.997139 67.127525 105.58559
77.218864 50 107.86395
71.448517 65.165497 26.416388
70.963837 51.722439 24.189342
71.511276 51.910477 108.30032
81.841141 50 37.948009
73.561142 50 60.22757
68.210159 50 67.810364
77.401283 67.408913 36.029251
75.843872 58.873585 117.25121
73.745621 62.593384 102.81298
72.513725 50.000004 38.258026
75.996437 61.365608 100.72884
77.606232 67.355255 20.994036
68.15419 50 116.43658
80.548294 50 115.74723
72.994423 50 99.755661
75.839493 56.902222 79.94072
74.722412 67.598366 90.143646
72.146088 52.128532 67.462479
77.059311 67.476189 43.238773
71.516174 65.988495 83.185875
74.148705 56.469299 89.033142
77.305267 50 80.362961
79.813416 51.499668 46.891315
75.510818 50 30.266825
82.575325 50.10511 86.339218
77.528526 63.593071 97.557144
68.769852 51.330204 82.437073
74.261795 67.454117 20
75.909805 60.281822 30.689091
69.248947 51.383438 109.05132
69.693535 50 110.45544
81.786423 51.268394 78.949821
72.641357 52.299095 98.756104
70.179398 51.498055 21.816088
77.163956 63.471516 93.570274
75.835968 57.031631 84.508316
76.540474 52.830864 40.894836
80.905869 51.366234 82.566628
78.513313 63.922997 82.654938
75.964676 54.59539 57.759331
77.630417 63.627045 93.163742
75.931938 60.63979 76.58802
74.118103 55.794258 72.933418
74.145096 56.336864 119.81946
77.792969 52.149464 92.620995
78.611122 64.439957 76.012527
74.006409 61.334618 74.908554
75.902794 60.168346 104.58845
74.085396 55.220478 49.349197
76.209816 67.569298 62.371037
71.018173 50 77.645401
69.038177 51.360016 48.032997
67.608582 50 40.794861
78.612152 64.427376 68.855927
74.07151 60.583881 116.26059
69.220284 51.380253 114.20628
75.82843 57.589005 95.366394
68.885605 51.343071 85.982552
69.342911 51.393879 75.334335
75.923073 60.496391 72.460831
74.262596 67.590378 47.958115
78.159683 66.971886 22.444088
71.454376 65.23674 79.3974
74.136345 67.58683 56.812439
67.416458 50.124962 90.397064
73.943619 53.758636 113.15759
75.840454 56.867203 108.5486
76.320335 53.119423 76.482483
67.400002 50.471462 22.279949
75.44931 50 20.111679
82.599998 50.53561 102.99519
75.86351 56.117088 109.36954
81.683006 50 26.133068
81.503258 50 115.91353
76.073837 62.032963 88.471817
76.447556 67.553772 46.022171
74.179413 67.588043 110.37624
68.661911 51.318214 92.262138
74.020584 54.425541 119.1172
76.366592 62.808136 119.24583
71.823967 66.953949 81.487839
75.842331 58.825764 71.013535
75.925514 55.046608 27.001423
67.97567 51.241966 65.243614
71.981918 67.115334 114.66425
68.387299 50 50.985809
71.435867 65.011597 110.11928
80.4785 50 115.69416
74.030052 54.534622 84.771362
79.746498 51.514687 83.466034
72.899261 67.46804 36.006725
70.26664 51.517639 52.276779
74.110291 55.657276 107.01233
70.978989 50 56.710808
71.825897 52.018547 34.611435
74.081978 60.414764 100.26054
71.985664 67.11834 59.869102
75.828598 57.6581 93.669792
72.702271 52.320236 47.43895
67.419151 50.118454 80.172714
75.771835 50 50.215973
74.046616 67.584312 41.418438
73.397499 52.765282 23.777933
73.938492 53.730526 107.52034
75.893135 65.85807 20
76.474579 52.907745 91.480423
73.805168 53.350109 67.362373
67.679489 51.199478 47.405884
75.836388 57.016319 57.26329
72.970848 52.444462 116.22254
78.046005 52.062546 31.171444
75.828087 57.450829 22.027206
75.866364 56.067024 52.855885
72.362747 67.343506 70.719131
74.72998 50 95.957413
72.010139 50 82.388565
70.565033 51.59267 117.36076
74.134148 59.558769 50.69381
74.107567 55.609543 35.233097
77.58477 67.363388 42.451424
67.805077 51.223007 88.021713
82.284454 51.208008 32.364384
75.981857 54.397453 44.242912
78.632965 64.174316 111.66032
77.289169 52.323204 103.89967
76.113785 67.575577 87.798508
80.029556 50 68.247948
78.489746 65.916435 63.424622
75.895615 55.553612 57.983479
77.949173 50 113.25674
76.109932 53.566723 37.066338
80.908615 51.365932 58.272568
79.568726 50 83.690361
74.133499 59.579193 72.16787
82.590088 50.901009 100.55737
75.967201 54.566307 72.732285
71.462646 65.337326 68.257256
74.049789 60.861336 118.20027
77.93763 67.179749 97.71032
74.086525 60.341156 119.93415
75.828522 57.626606 103.466
75.848824 56.560043 46.906223
76.82785 67.508545 110.7793
71.365097 64.150703 66.278435
71.293671 51.835732 116.71884
71.731659 66.821869 22.858156
80.649002 51.394779 80.622665
71.393356 64.000641 42.010574
82.599998 50.412289 95.395309
75.976974 54.453659 84.750931
71.587334 66.499588 104.45412
72.131577 50 82.634277
71.410828 64.706955 61.544312
68.057549 51.25106 51.50621
74.17112 57.778984 72.958946
73.905197 67.576805 50.686348
81.110573 50 34.781868
75.828323 57.546341 118.61938
70.113846 51.48806 79.68531
80.862556 51.371048 100.78399
72.729111 67.434563 77.034454
78.215233 50 97.55555
71.698578 50 31.05847
81.824738 51.264145 28.73781
71.7099 63.847 65.468788
79.328262 51.624992 114.73464
73.191376 67.511063 82.373734
76.052956 53.777409 70.55439
74.138222 59.431816 81.576035
74.171112 57.780327 26.571091
79.486061 50 51.440193
77.295517 52.321003 45.785362
75.860214 59.383041 74.106918
75.971252 61.090919 30.619493
74.138702 59.416744 75.623123
72.710266 52.323013 62.442955
73.324905 50 112.47235
78.793251 50 93.324348
72.807556 63.48101 37.365292
74.144966 56.332108 20.061968
70.313652 51.528187 31.977888
82.597961 50.836575 57.037468
76.059174 61.947552 102.61688
68.375717 51.286415 119.59749
71.83699 52.022358 64.020134
73.942482 61.937881 39.980423
75.836143 58.632881 35.297829
68.529259 50 58.061317
81.106621 51.343929 65.669823
73.463516 63.062866 97.790283
67.656387 51.192631 101.51909
76.981766 67.488464 39.906296
73.803932 67.57019 32.334488
74.027893 61.10025 59.178154
71.818939 66.948441 105.3595
73.88588 62.205666 35.461647
69.488556 50 39.09193
82.599991 50.50349 63.418079
69.250755 51.383644 81.878639
68.848137 50 73.417603
77.334846 50 26.545879
71.454865 65.242683 99.376892
68.692947 51.321659 60.986198
72.741203 50 68.906937
69.335609 51.393066 113.2738
76.892174 67.50016 60.951584
74.114265 59.892227 50.064781
74.107224 67.586014 92.233757
73.255966 67.519485 51.366577
71.373398 64.251724 97.312531
77.724403 67.310204 94.187363
74.249176 67.590004 105.42659
73.861374 53.477913 38.877777
76.947159 63.39679 114.7872
70.363312 51.539333 84.247246
74.09066 55.312836 65.083908
76.608124 63.158867 91.468132
79.946457 50 88.335358
78.297028 50 46.819424
77.664413 63.638378 67.095879
78.447617 51.924595 54.855385
71.711998 66.792053 43.876106
73.014069 50 102.44932
69.052261 51.361584 28.266052
75.986572 61.258057 63.341385
75.841812 56.817047 80.698677
73.630905 62.812473 99.545135
73.96962 61.736015 93.84095
74.117508 59.83992 23.562065
71.473305 65.467033 81.802742
74.130974 59.622047 56.310654
79.247749 50 91.452484
72.574562 50 34.141045
72.841911 50 95.087311
71.813278 50 69.674072
76.328171 62.741558 39.266651
71.479416 65.541374 111.18967
74.400772 50 47.721039
74.128601 59.660446 48.630802
80.634811 51.396358 105.44183
71.487602 51.902348 83.673409
74.812134 67.598892 52.527634
68.299812 51.277981 54.763046
75.828308 57.538506 63.721863
72.893051 50 77.101624
80.598946 50 102.99531
75.849213 56.545746 55.193367
76.006195 61.47213 113.39626
73.051491 52.492809 66.318436
74.102257 55.516285 76.486664
75.828262 57.314327 30.123219
75.812027 67.58828 114.34908
81.732056 50 87.249924
74.820221 55.718555 20
76.264702 50 116.09901
71.976822 52.070389 36.856659
81.706726 50 90.500687
71.456116 65.257904 114.07092
69.363823 51.396202 107.08537
72.406387 50 80.044373
75.930328 67.584953 97.625565
75.827972 57.40184 107.03304
76.465622 52.91819 70.468063
73.250366 67.518753 118.11463
82.599998 50.243141 49.164238
68.357513 51.284389 67.557251
76.013634 54.031353 25.822914
74.054932 54.821327 24.530645
78.322258 66.729477 73.776009
78.634468 50 22.825928
78.989136 50.203285 20
77.312752 52.315018 29.533411
75.924736 55.055557 99.506271
69.926056 50 67.17775
76.120567 50 79.713768
67.400002 50.25576 44.301331
75.980789 54.409714 97.22068
75.841324 56.835308 96.489059
74.150085 59.062164 33.837955
74.120071 59.798496 84.846619
71.547028 66.312767 108.0647
73.189644 63.330521 87.709625
78.071396 63.774078 44.185993
74.129784 55.99955 74.952469
74.01593 61.230713 52.950043
76.135223 62.276955 68.33593
78.261978 50 66.953339
73.5952 52.989529 42.106609
77.408607 50 97.822174
77.492821 63.581169 69.16288
82.599998 50.74472 58.870541
74.112846 59.915344 93.968163
75.028496 67.599831 82.993469
73.53479 63.862862 20
70.251648 50 83.696999
67.541992 50.009399 20.794411
80.290337 50 52.403164
80.650528 51.394608 103.12754
72.535957 63.571571 103.30022
76.071106 62.017056 26.012672
68.994751 51.355194 92.23732
80.758072 51.382656 66.106812
80.089638 50 83.341034
82.599998 50.244316 87.665344
82.535728 51.032661 109.89291
72.659523 63.530373 81.695892
75.331749 67.598045 73.80835
74.042419 60.941818 73.42244
77.827209 52.137703 22.642448
67.573044 50.003548 26.318722
73.650406 67.560165 113.79483
73.625443 62.821953 23.629431
78.59745 50 48.844799
68.626328 50 77.802788
82.494522 51.089836 54.135464
74.057693 54.853115 93.092865
71.94017 50 32.262516
72.98307 52.450615 105.6973
75.407242 60.500912 20
80.320854 51.43124 119.94209
75.878143 55.860275 59.715096
68.035645 51.248627 53.063332
76.042625 53.834 94.488235
75.837433 56.978039 77.255676
76.026962 53.919823 81.328484
69.003571 51.356178 117.39397
72.8246 63.475327 97.774193
78.630463 64.204597 31.704887
71.815002 66.944122 116.71661
77.523308 52.242092 115.25503
82.266151 50 85.615173
74.034431 61.0289 58.546104
71.537308 66.227562 71.688866
73.544861 50 50.160286
72.860497 52.388935 68.002892
75.830185 58.316452 43.539711
76.32412 62.734539 40.282909
78.355301 50 48.684265
73.047844 67.492332 86.752502
74.143303 67.587029 73.382645
76.273804 50 30.309126
74.171707 57.53175 51.568153
67.400002 50.534851 110.55489
73.613327 53.017391 29.003098
79.355431 50 52.694477
75.900856 60.13707 50.852234
74.468613 63.723114 20
74.06813 50 108.15788
72.356255 67.341042 81.549202
74.133873 59.56749 32.069061
77.999107 67.130524 106.76169
75.967873 61.054031 22.053852
82.270454 51.211315 111.12217
75.992645 54.27317 103.15089
76.90654 52.521408 118.68188
70.48217 51.56757 54.624237
71.380951 64.343536 35.687023
70.219986 51.507168 25.95224
74.170883 57.877815 82.687996
75.937004 60.71727 86.934509
80.486702 50 113.86751
77.372581 67.414566 91.850296
73.142166 63.35762 27.407867
71.968788 52.067635 96.524323
71.394157 64.504158 90.589066
73.408188 63.137005 36.740532
74.056686 54.841465 30.737999
77.978912 50 74.226631
68.183571 51.265064 72.863724
68.540298 50 32.491112
74.171463 57.632793 98.099106
71.490242 65.673042 91.014145
75.306458 50 97.017807
78.545334 65.240318 32.220276
73.083176 67.496941 58.952908
76.745346 50 56.734779
74.150787 56.545723 51.133018
78.939507 50 55.938202
82.577744 50.11097 66.566475
75.85125 56.470943 56.654488
74.171364 57.300743 60.802704
73.311676 52.688438 64.947067
76.908485 63.379829 35.479778
74.947197 55.554325 120
77.025032 50 73.975166
75.828545 57.639248 94.592209
79.609047 51.545536 23.78162
70.990097 51.731457 57.479065
74.171135 57.771099 74.711578
82.327507 51.197823 90.025681
69.973839 51.467278 36.70385
68.294632 51.277405 50.100803
76.504578 52.872742 110.56203
74.10112 60.104912 56.603729
74.169586 58.411419 104.44572
76.092194 53.62162 52.610458
76.014954 54.016071 24.963255
68.202942 50 85.435638
77.743294 52.166531 106.50113
74.13414 56.075809 38.399944
76.535561 63.061638 103.9051
80.624054 50 116.27419
73.578751 62.902866 32.500126
73.531898 62.971249 46.403248
76.412689 67.556046 74.20488
72.047066 67.167488 43.836575
74.169983 58.251167 118.25669
72.690948 52.316307 35.558357
70.746567 50 86.100838
76.052498 50 42.947067
70.975037 51.72628 61.770321
74.170578 57.271927 46.069176
82.599998 50.381714 87.917824
80.062828 51.461838 102.56799
77.981491 50 63.917812
78.396301 66.558731 73.133766
74.090584 60.275497 111.75859
74.293968 67.591263 116.87738
76.031174 53.896713 96.405708
78.74749 51.821594 60.916939
73.450798 50 99.515823
80.348022 50 117.90242
79.267029 51.643547 68.080948
82.036224 51.240643 35.909946
80.38166 50 53.880341
67.400002 50.647007 54.790752
71.846237 66.978378 76.004578
71.034729 51.746788 49.061199
75.153732 67.599091 118.45762
68.29454 51.277393 63.646729
80.842468 50 96.178146
71.380508 64.025787 39.809639
78.040802 67.097153 50.360367
77.447327 52.268303 67.735016
68.78215 50 84.321312
67.482521 51.058861 40.120991
75.865723 59.554844 91.624336
75.828552 57.641567 109.38899
75.986206 54.347321 20.832016
68.808594 50 33.64465
77.473984 67.394615 30.517031
75.83017 58.314323 52.309433
82.599998 50.374256 73.659439
70.4095 49.999996 108.51939
71.652428 63.866165 93.647163
79.473122 50 71.736099
78.130806 67.003555 98.427216
82.245399 50 111.67751
73.260071 63.28273 52.007423
81.037735 50 116.93806
74.035034 61.022408 75.739426
78.625175 64.269012 115.05972
74.00058 61.398224 119.12026
74.075584 60.51807 59.638367
76.474472 62.979774 63.952137
78.568237 64.961571 41.894653
74.127502 55.959503 99.946564
81.10141 51.344513 43.389206
72.842506 63.46936 108.81384
69.654175 50 34.032234
75.893723 60.021725 59.138836
76.604698 63.154266 28.983528
75.972069 67.583786 78.883423
70.131554 50 70.899071
72.962852 67.480553 58.698318
75.829933 58.213123 25.180956
70.002869 51.471588 32.072964
76.113571 50 119.56666
77.582855 52.221638 57.499775
78.196388 66.931015 44.939369
71.063065 51.756516 76.342636
75.895264 55.559727 37.933121
71.451996 65.207855 32.001602
79.246361 51.650234 53.315865
74.965607 67.599792 95.435455
76.695694 67.525787 69.473618
78.618675 64.34819 44.55616
74.13398 56.072975 109.03624
74.984032 67.599907 59.772163
72.466171 67.38269 35.324867
76.638824 63.190392 74.943359
80.25975 50 68.893509
76.377991 50 74.774803
78.546875 65.221481 75.739136
74.125648 59.70826 92.208084
71.217827 51.809681 58.403427
74.047409 60.887318 78.295853
74.135818 59.506638 53.830956
67.402061 50.836823 34.008232
71.762848 51.996891 102.27351
78.099167 63.78334 48.41481
81.05529 50 92.513794
73.203339 50 22.344322
74.170403 58.075539 91.675415
68.882378 51.342709 58.322376
78.409966 51.937527 41.366272
70.340042 51.534111 37.7948
75.547905 50 56.661224
69.999435 51.471077 92.042015
81.520874 51.297901 77.62767
81.479095 50 99.648628
74.147873 56.438747 59.048725
76.096252 62.145294 41.074638
80.820526 51.375721 48.701416
74.103462 55.537521 70.662674
76.025261 53.929142 52.720062
73.002777 67.48645 91.413139
72.726006 67.43396 98.415375
76.799301 52.59449 39.295158
67.439453 50.083496 59.292801
72.682587 67.425415 67.161896
75.865967 59.562283 97.886269
74.033096 61.04351 100.37254
71.921288 52.051315 95.924767
77.66201 63.637581 73.082764
71.416451 64.77533 40.838596
74.088226 60.313656 94.582748
70.706047 51.635391 62.4692
80.393265 50 109.20119
77.466743 52.261559 110.73963
69.8993 51.456215 58.055328
71.500687 65.800072 58.352768
76.446747 67.553825 28.178354
74.141113 59.341705 30.723898
74.314934 67.591858 98.630447
71.639816 66.645996 38.003841
73.998947 61.415962 48.683666
75.828453 57.307484 82.289146
74.607872 67.597046 28.296009
75.856613 56.274155 81.822662
78.069588 50 100.16435
80.396553 50 23.754795
68.544403 51.305157 46.614292
75.388153 67.597107 25.679169
71.522644 66.067169 118.92628
78.144272 52.028793 104.20154
78.030312 50 68.931221
72.244789 50 116.79185
72.710297 52.323025 80.258339
77.421944 63.557533 79.772079
81.12812 50 31.113358
74.120682 59.788551 88.120697
77.016235 67.483978 70.116661
72.050163 67.169968 23.173651
82.599998 50.577011 49.313644
78.441551 51.926682 106.48645
73.928978 62.016575 44.545498
74.171974 57.423328 97.083572
73.680428 62.726658 119.31207
81.765602 50 44.217548
67.400002 50.388344 79.987923
78.319817 50 59.290295
73.78965 50.99123 120
78.250168 51.992424 28.980511
72.533905 63.572258 63.56226
76.153107 53.437706 43.219452
82.175629 50 60.435898
75.277794 67.598366 80.942268
75.962349 54.622219 81.521255
71.381813 64.023232 82.6362
78.43438 66.421143 65.199249
71.364342 64.078415 86.652489
74.105438 55.572071 86.582138
78.550499 65.17749 80.589081
76.304398 67.563126 82.687088
73.977585 61.649048 66.679527
74.140144 59.371761 40.532707
75.016693 50 69.930801
76.665352 67.529747 53.334023
78.263489 50.863503 120
82.595543 50.856422 41.712349
73.900391 62.156643 115.23772
72.393806 52.213623 54.204857
76.688202 50 102.70772
69.903831 51.456886 32.591606
75.950432 60.8638 23.464153
82.345245 50 105.28816
72.263138 50 49.44426
75.936874 54.915794 34.242016
74.780235 50 80.401657
72.615379 64.131821 120
79.404572 51.601883 67.765717
75.889618 55.658943 86.470657
67.433876 50.974178 79.646797
75.828125 57.464317 100.61004
74.012764 61.26532 103.47168
73.542351 67.553108 115.84218
69.148994 51.372337 42.060806
78.493347 50.469154 120
74.039948 60.968674 27.879725
78.369362 66.625801 96.152367
81.085938 51.34623 60.533401
76.241798 67.567207 30.204342
75.924049 60.51215 114.71597
74.027542 54.505688 116.99128
81.700348 51.277962 100.61895
74.170174 57.257076 119.45277
78.249207 51.992752 106.41895
74.018005 61.208092 93.327652
78.340851 50 111.79606
78.793655 50 110.15821
71.855255 50 52.458115
75.832451 58.51786 43.128151
75.866913 59.587952 66.153801
71.408356 64.676933 78.240501
76.01342 61.550941 58.32848
70.851944 51.683998 91.599144
68.418205 51.291134 90.700943
73.800476 67.569969 33.940071
82.549469 51.012932 86.855103
73.68869 50 72.718651
71.642197 63.869576 68.785881
78.493431 65.871674 73.847992
69.090668 50 81.918922
69.710495 51.434723 119.39589
70.441841 50 42.282528
76.123726 67.574921 62.573227
76.833748 63.346401 118.25194
81.949364 51.25029 93.266655
75.832436 57.161217 63.366425
71.389877 64.452148 23.225822
81.0093 51.354744 81.731682
72.096756 63.718014 41.857418
69.84697 50 91.83165
76.644608 52.727585 82.838715
81.136276 50 68.622314
74.169968 58.252991 55.160374
77.776581 52.155094 52.687756
73.818542 50 23.914745
78.375534 66.612236 81.714401
73.154816 50 28.646641
72.377937 52.208172 115.81037
76.160339 67.572525 44.310963
72.648773 52.301666 67.123077
75.852753 59.150661 109.46823
73.529205 52.912163 100.04514
82.599998 50.603142 112.45221
69.635498 50 80.714607
70.349747 50 92.211647
76.593971 52.772919 112.45439
74.030937 54.544788 99.775581
72.165604 50 92.907028
80.859879 50 22.652159
78.405731 66.524628 27.230173
69.117172 51.368797 46.265293
78.937737 50 38.045784
74.50708 50 59.69355
74.989067 67.59993 74.90728
75.121407 50 69.015038
74.108589 55.62743 45.772114
76.142746 67.573677 95.138649
69.317818 51.39109 101.11819
73.92189 53.665215 92.997871
75.069252 67.599594 107.77886
74.00248 54.217018 48.133385
71.567337 66.427338 36.265999
80.79361 51.378708 78.423828
74.081184 55.146507 71.493835
73.118111 52.538208 55.95969
78.076675 50 31.296146
73.95491 63.243004 20
74.1091 55.636459 114.34091
76.840065 67.50695 43.626801
72.569519 52.274151 72.061615
75.828049 57.432747 29.124802
75.830978 58.472019 31.461817
79.440224 51.59108 117.59872
75.899574 60.116302 76.4086
71.667343 51.964085 67.39772
68.953171 50 117.38529
78.999474 50 54.903614
78.421562 66.467453 92.149635
73.724426 62.64275 41.09127
76.031349 53.895782 57.931286
73.956573 61.855789 71.524994
75.986382 61.255981 73.585785
75.829643 58.092781 47.4907
67.406494 50.873074 68.383896
76.019981 53.958233 77.621246
70.346527 50 78.457199
78.418816 50 101.47542
76.019722 53.961182 20.169516
71.478027 65.524498 25.401276
75.891541 59.986351 52.636181
70.867371 51.689301 57.612366
70.094055 50 39.770611
71.52977 66.153839 90.418877
73.148521 67.505463 77.199875
71.507957 65.88855 29.561905
77.717552 67.31308 97.425171
71.478287 63.92688 30.745144
77.627213 67.347305 31.392481
70.713455 51.637638 86.333893
73.605934 53.006042 86.588051
79.472557 50 78.615311
78.460831 63.903931 97.387848
71.780907 52.00309 90.634628
76.786224 67.513977 22.093887
73.448502 50 50.767651
70.725647 50 66.826561
75.843819 58.872101 47.735577
80.223282 51.442078 34.792145
78.114838 67.021072 33.058353
71.968491 63.760777 98.122604
68.363503 51.285057 72.090439
78.590874 63.980274 52.899689
75.840576 56.862595 52.254208
75.859032 67.586967 62.175552
75.829681 58.107697 33.461403
74.163193 57.000908 40.499119
78.369064 63.873329 113.42999
74.052094 60.836224 56.241608
75.847046 56.625446 110.98338
80.538063 51.407104 43.602173
71.466629 65.385773 63.882702
73.190323 63.330063 109.4301
75.806114 67.588455 58.388958
67.747101 50 39.975269
76.036484 53.867683 54.52985
68.348289 50 53.705208
74.104004 55.546959 114.76976
74.092018 55.336594 31.120247
71.690254 63.853546 115.32925
80.693298 50 111.08423
71.625977 51.949875 114.53777
78.452316 66.318489 40.129551
73.883408 62.214012 94.818962
77.478333 50 79.088715
78.624275 64.279984 117.14049
75.875404 59.725288 100.2581
82.147629 50 79.937386
71.583977 50 67.865692
72.833984 67.271065 20
73.971268 53.910172 97.357224
74.982819 50 45.307308
74.031387 61.062119 95.539551
70.250458 50 94.245819
74.69577 67.598206 65.384827
73.786293 50 96.339584
71.768776 66.878181 92.576401
72.459229 52.236092 89.017982
77.517838 50 52.275074
75.881828 55.795654 110.8177
75.830345 58.384556 84.708366
74.152275 56.600288 107.41438
76.061264 61.959694 38.274376
74.009842 54.301842 105.44858
73.907074 62.134052 63.981884
77.655388 50 51.754417
70.219025 50 76.606079
71.467377 65.394905 54.333366
82.246895 51.216896 48.826782
78.636551 64.130539 75.427284
67.556717 51.134697 85.637238
73.927864 67.578293 112.67659
73.998001 54.165325 119.25641
76.449226 52.937325 30.192993
79.71682 50 106.31801
75.829597 57.265369 25.235086
80.492058 50 43.717712
81.293671 51.323151 88.476425
75.760376 50 58.728283
78.513321 65.629669 37.711323
74.154076 56.666481 77.696808
81.096085 51.3451 56.59362
80.963882 51.359791 94.520798
73.388214 63.163677 112.58222
74.03891 60.980003 74.049049
71.687492 66.750938 78.444977
74.155434 58.895454 21.542738
74.820702 50 100.24528
71.84375 63.802376 106.85707
75.830414 58.413719 97.783752
68.259735 51.273525 74.269897
71.467896 65.40126 43.972229
72.955994 63.431522 44.491154
78.601196 64.560715 71.975143
75.870575 55.993095 32.048389
72.931122 67.474304 93.176872
78.41201 63.88765 69.22364
70.619247 51.609093 88.9944
67.400002 50.409988 67.771049
72.707176 50 41.3484
74.130035 59.637337 82.58638
74.120583 59.790283 43.459263
69.0541 51.36179 39.459961
68.740929 50 69.51767
70.293739 51.52372 85.098007
73.218628 50 117.41762
71.689697 63.853737 81.940308
78.551666 65.163261 112.37894
73.790428 67.569313 41.438717
80.605888 50 40.534634
79.881042 50 98.100174
74.144302 56.307728 78.471527
70.312874 50 37.026314
73.065201 67.494598 98.844498
82.409523 50.001251 77.802116
81.315414 51.320732 59.233006
71.46151 65.323532 55.169128
74.130638 59.627518 90.78022
77.720505 63.657082 68.635086
71.494576 65.725761 44.495499
75.836403 57.015747 65.020836
76.031822 53.893185 54.492508
75.993629 54.261765 50.199345
76.942001 67.493652 80.053635
74.96772 67.599808 104.69299
79.210236 51.66264 42.537651
75.455894 67.595947 103.30667
75.861534 56.151699 71.683624
74.828217 67.598984 41.305511
68.955826 50 26.289219
73.877075 62.235413 93.876984
76.108803 62.187675 83.824387
74.14257 56.244152 119.673
75.829224 57.920063 96.77739
72.591675 63.552994 90.160652
80.028915 51.466873 66.791771
82.595955 50.85302 21.37434
73.877602 62.233616 86.412399
82.17746 50 84.352692
74.998192 50 33.203255
73.187317 50 76.744812
71.829132 66.959618 49.520985
80.785561 50 108.78439
75.623535 67.593109 35.04245
76.937393 50 75.173355
73.841965 53.427368 81.097427
75.975082 54.47551 46.941639
72.733734 52.331158 112.06661
77.710938 52.177643 44.547497
74.133347 56.06189 109.44608
79.665932 51.532776 64.734268
69.221115 50 40.635445
73.988846 61.526253 73.163712
74.149124 56.484726 77.959625
81.681831 50 23.17952
73.217598 52.60601 69.37925
72.93 52.423912 52.66935
74.145393 56.347919 46.84761
74.149864 59.068951 115.70997
71.412216 64.723862 102.03304
68.631218 50 29.019672
78.135963 66.997894 91.4832
75.830177 58.317642 82.877754
78.578995 64.830826 76.131187
82.599998 50.423096 105.96832
71.564392 66.41671 95.305267
75.844307 56.725616 33.923172
74.169914 58.278694 69.751305
82.382378 50 94.58149
72.019646 63.743721 89.423981
74.024284 61.13961 111.6088
75.994759 66.88105 20
77.164429 50 35.578285
73.422562 63.117744 43.235241
69.729515 51.436836 104.10905
78.605606 51.870327 66.235039
71.540672 66.25705 82.479752
76.652931 63.204323 76.396179
70.940781 50 44.212879
74.982231 67.599892 74.437965
78.111877 67.024307 43.564297
75.849792 59.058178 58.749008
68.948814 51.35009 70.457489
71.41188 50 93.211411
75.863922 59.498558 83.892403
81.627518 51.286053 51.330612
76.723511 52.656944 80.095436
72.947571 50 40.698215
82.170212 51.225754 113.59087
75.999985 52.175533 120
67.689957 50 65.886887
72.561714 50 115.20402
75.381378 67.597221 74.357262
78.266678 50 21.497837
74.979591 67.599876 55.252464
75.857506 56.241398 56.054039
74.171356 57.677723 103.80968
70.141113 50 36.004402
77.817375 67.257156 47.15852
74.169662 58.38282 93.427002
67.945251 50 102.26971
70.668991 50 101.84616
82.088463 50 39.158962
71.370461 64.215927 79.356079
75.907745 60.248398 75.611664
73.493919 50.318775 20
72.022026 52.085915 73.341843
71.376595 64.290482 64.365356
71.260033 50 119.02574
73.931458 50 24.599438
75.835541 57.04752 58.259232
74.039642 60.972107 55.49646
78.545731 51.8909 101.76276
74.687881 67.59816 33.436691
72.904266 67.469025 91.514626
75.494644 50 82.019455
77.562225 52.228725 73.024788
80.333473 51.429832 71.6437
78.931305 51.758457 119.48058
75.30336 50 74.203049
76.816475 63.334675 119.78349
75.924095 55.062923 58.713142
74.116165 55.760361 31.523754
78.459999 66.251167 81.573372
69.788223 51.443356 116.18967
76.491486 63.002586 79.970413
74.149948 56.514847 114.97589
73.859291 53.471462 103.67121
75.870438 55.995544 32.025093
74.167854 57.171883 98.293518
73.826393 62.40527 69.804901
75.997269 54.219875 105.06647
74.047348 60.887993 79.668365
75.828323 57.547844 63.758461
72.596092 52.283375 90.803894
72.035156 67.157959 101.92311
76.969757 52.478321 93.84269
67.468239 50.051167 67.556747
81.732567 51.27438 36.538292
76.547028 63.076996 106.86688
82.599998 50.31625 47.319271
74.014542 61.24593 71.181259
76.454193 50 24.416447
75.971069 67.583809 39.397682
75.863586 56.115746 86.461418
68.12265 51.258297 83.127541
78.571983 64.9161 46.758919
72.885376 52.401455 110.12172
74.117439 59.841137 44.757751
74.150032 59.063797 67.492996
73.961441 61.825211 31.587345
76.245102 67.567001 70.626686
73.784714 50 106.99792
67.447525 50.072983 75.532234
68.162315 50 78.094643
71.51564 65.981972 69.822105
73.936951 61.970116 56.523026
78.152962 50 86.248886
80.155083 51.449657 67.259987
76.462791 52.921509 46.575455
74.033501 61.03907 26.160011
80.548965 50 42.057491
74.075378 55.05682 42.513103
74.150818 56.54689 32.988728
71.514923 65.973236 37.465992
67.944199 50 107.26763
70.324982 51.530731 28.717138
69.669975 50 21.241219
70.803146 50 119.87978
71.621231 66.605087 99.579773
76.285561 62.665997 99.786842
75.209259 67.59877 95.075165
74.50563 50 64.34433
82.112892 50 28.486891
76.362129 67.559357 115.07912
73.255219 67.519386 55.207813
78.276443 66.80957 51.917557
69.678856 51.431206 36.517849
75.359375 50 31.118279
79.509933 50 78.841621
78.997421 50 41.673054
75.845451 58.923016 74.571617
76.000183 54.186226 106.22818
71.499458 65.78511 76.349213
78.41449 50 38.744934
72.321976 67.328049 82.236877
74.170219 57.258568 100.47127
76.285179 62.665115 87.878571
74.106987 60.010178 85.798576
77.193504 52.361763 46.320206
75.065964 67.599609 30.950783
72.527351 63.57444 60.877438
74.146683 56.395206 51.466354
71.674568 66.722496 65.228683
78.119652 50 83.330521
75.983002 61.219124 106.8372
68.356155 51.284241 103.98236
75.857391 56.245686 23.662407
75.383377 67.597191 26.636501
69.014343 51.357372 54.042336
68.840546 51.338062 66.618362
72.141075 63.703239 104.54025
75.828903 57.786747 34.298424
67.400002 50.408398 89.901382
76.008934 61.501984 51.25354
77.63488 67.344398 29.045012
76.544395 50 106.64931
71.785316 50 67.882507
77.06369 67.475327 36.331406
67.62455 51.176231 105.13105
82.202209 50 111.66605
73.219666 67.514748 23.729008
80.513275 51.409863 113.42052
73.698662 62.695049 63.852795
76.65213 52.720856 37.989048
71.247047 50 79.805527
74.136124 56.1106 24.916168
81.101784 51.344471 75.941383
74.166191 57.110874 21.33534
71.851273 52.027264 88.677773
72.117294 67.219864 41.25568
79.360275 51.615303 82.602966
77.753159 63.667969 111.10293
77.809692 67.261536 96.753967
81.410858 51.310123 29.771465
76.202316 53.334373 74.32547
78.545372 65.239799 51.229385
74.003082 67.583084 55.648872
76.130241 53.50386 32.659538
71.495102 65.732208 21.595572
69.807457 51.445496 22.556618
74.008606 54.287575 117.51563
74.151398 56.568245 91.225418
67.440948 50.081551 62.59285
71.400635 51.872475 92.604172
73.544739 62.954044 28.734545
75.98616 54.34787 73.28804
76.095604 62.143112 67.796181
72.678474 67.424606 71.812012
72.698662 50 42.707939
69.896896 50 80.321022
71.74025 50 52.487816
75.854362 56.356701 99.463348
76.071373 62.01862 26.214203
75.829689 57.262127 54.565144
74.155746 58.885715 39.858887
78.098953 67.038483 76.491249
76.829857 63.343754 105.4002
74.157684 56.798592 58.345818
75.745003 67.590164 65.792511
70.19619 50 62.176529
68.369133 49.999996 109.55234
77.951828 50 82.066177
68.901657 50 54.325882
68.239807 50 64.778625
