# .PCD v0.7 - Point Cloud Data file format
VERSION 0.7
FIELDS x y z
SIZE 4 4 4
TYPE F F F
COUNT 1 1 1
WIDTH 1841
HEIGHT 1
VIEWPOINT 0 0 0 1 0 0 0
POINTS 1841
DATA ascii
34.562965 31.215746 54.397938
42.387367 43.5 75.67028
60.584312 43.5 107.83372
81.365936 40.368679 121.00879
99.274048 43.5 49.09248
59.59626 43.736565 82.820969
91.701645 30 38.061619
63.290939 40.674446 29.229149
53.749756 30 103.02287
33.091579 30.090549 91.672691
78.275627 43.5 52.863358
109.37656 43.5 60.898064
30.149212 41.719696 93.319237
51.735237 29.999998 40.708645
92.451172 30 70.952744
119.31353 43.5 76.899597
71.507866 43.5 98.963547
90.552078 43.077393 120.48133
122.31627 41.517429 84.998947
120.57403 40.527714 85.213478
122.4386 41.603451 84.574715
73.082809 46.954685 60.690422
37.391129 39.53886 101.35628
83.873421 45.036064 87.831299
106.83601 43.5 46.966068
99.372482 30.000002 105.2281
83.764404 43.5 39.450512
90.772598 43.5 48.775238
59.928535 40.921333 29.584557
86.772636 49.995342 81.78363
52.690521 30 61.06892
49.961117 30 87.002998
80.660561 34.110344 81.55407
32.436996 39.545914 92.261696
68.128822 43.5 116.15469
62.378357 47.134247 81.878853
69.705048 43.626724 67.930336
56.72084 30 39.05505
103.97676 29.999998 93.974579
48.088467 43.5 109.21132
43.846809 43.5 79.059601
51.1875 30 76.775261
88.895844 30 47.696213
75.734955 30 47.299984
63.66497 52.337471 74.991585
58.201935 31.164625 32.839409
61.475098 43.5 110.74036
88.907272 36.85466 118.53487
36.374378 43.5 61.030037
118.08488 33.565094 60.36375
48.051739 31.356581 111.52745
41.84956 30 94.309296
111.67467 42.885796 106.35801
68.690384 43.5 37.490776
76.068214 30 113.42369
81.983025 30 59.932663
88.275696 43.5 117.48241
114.57992 43.5 61.385422
69.647621 30 64.672134
43.568455 43.5 41.775719
38.984142 32.488258 47.276901
121.33116 43.5 77.511185
51.95211 43.5 53.394905
67.061813 43.5 43.543781
101.59795 43.5 51.407715
111.06407 34.474915 47.156029
68.925232 43.5 97.174118
113.55586 43.5 58.790897
94.228897 30 83.46241
50.178425 30 56.939995
48.106483 40.419083 112.94041
111.63516 43.5 80.373482
31.136623 43.5 77.864212
121.63153 42.094212 88.362144
68.149788 43.5 98.155205
56.540154 30 102.1766
41.214531 30.92536 105.28655
102.70067 43.5 79.823601
93.644501 30 44.465172
112.0649 30 96.671906
65.027573 52.337471 79.873238
102.11246 43.5 73.651787
62.475697 52.337471 75.76326
82.255592 43.340019 80.0299
70.743103 30 61.705296
39.528767 33.40432 46.511917
73.522461 43.5 109.20954
91.421165 30 34.908077
91.882629 43.5 43.580952
61.025242 30 92.527725
81.299393 51.94062 86.451233
96.259094 30 47.696495
102.59729 43.5 42.628677
41.135605 43.5 56.07687
64.53434 43.5 34.824348
70.35218 36.365513 29.547779
87.81633 30 99.851692
45.191715 30 43.398895
86.41713 30 61.893002
75.071541 38.110134 120.73026
88.212593 50.00592 78.158195
117.43523 43.5 86.666809
83.915939 48.939705 75.454376
57.961864 43.5 64.016312
67.311516 43.5 50.26997
74.71936 46.676834 60.455818
64.458206 48.023605 65.614578
55.898201 30 49.987125
39.073624 41.475021 107.35162
65.886551 43.5 44.985516
76.241119 40.29586 83.683922
70.009102 43.464218 28.153816
45.489082 43.5 94.220238
60.457127 30 76.466347
102.85165 30 41.57402
87.986198 44.549706 84.490761
42.027824 30 97.163132
80.836777 40.72765 27.895731
46.246136 30 48.177032
80.790977 30 97.394127
67.606262 30 36.768997
57.511284 30 85.420769
90.836899 43.5 41.645573
79.965576 50.751091 62.569187
66.009323 30 109.46558
90.604279 43.5 46.570408
95.706512 30 101.53136
108.64256 43.5 86.823563
84.729126 41.057457 27.964834
88.48159 43.5 113.4809
90.723022 30 82.848412
88.911644 30 53.190872
67.751793 43.5 55.113857
99.700623 43.5 38.145882
109.61673 43.5 53.062584
117.55134 36.193398 58.394543
52.11013 30 102.57445
82.577057 30 116.71642
116.63181 43.5 87.461288
103.46059 30 99.239761
76.957436 43.5 121.57881
85.075836 52.337471 69.49984
63.631256 30 106.38579
90.805534 43.5 93.295433
84.210144 43.5 36.67783
59.987915 30 100.31517
46.800404 37.219189 39.024391
98.079086 30 97.033676
69.882187 31.715103 29.879105
47.833008 43.5 83.501831
42.388741 39.537064 42.665451
45.225052 38.647602 40.219719
37.74995 41.51997 105.85248
40.928082 43.5 96.372093
41.960449 43.5 66.93837
67.226624 43.5 51.069817
83.669006 35.162498 74.536919
55.067734 43.5 93.202721
102.25819 30 50.223251
64.422409 30 56.180805
41.582523 30 59.776737
91.828766 30 57.256111
44.810463 43.5 98.941147
61.400848 30 32.546951
88.037155 52.035072 75.431549
55.500443 30.928984 115.96545
80.968498 30 52.6133
40.53701 43.5 82.97097
102.29994 43.5 60.045986
119.98091 36.456161 66.975906
55.636234 30 60.779827
31.820562 39.827145 59.077152
35.996243 43.5 80.149399
111.26823 30 67.06398
45.81089 43.5 62.678192
116.41273 31.621191 93.623878
42.748245 30 70.531273
96.807022 43.5 86.939598
44.556679 30 93.870499
106.31552 43.5 68.357353
76.164474 30 52.380493
88.167107 50.559914 77.665611
26.783279 41.70483 79.607651
29.801315 32.032463 70.435974
92.470398 30 102.29906
109.48882 30 75.971039
80.041168 43.5 52.696663
106.30018 30 104.28786
95.101593 43.5 70.779778
115.18883 31.405785 53.889465
112.15901 32.469231 48.834564
88.118813 43.531448 86.871704
50.074837 43.5 86.106804
69.617462 44.010223 90.922409
69.556831 52.337471 83.256294
42.125614 43.5 43.342594
46.199799 30 92.23822
71.004433 30 42.307751
46.730511 30 68.22908
78.884727 30 43.581093
103.37147 43.5 66.001984
71.518631 43.5 33.075459
106.71995 30 101.02724
37.534809 43.5 50.078941
102.44882 43.5 102.67746
37.766678 30 59.935574
108.51656 33.519028 44.225945
107.71343 30 58.914833
65.273582 43.5 109.57384
101.58559 30 78.821831
95.592682 43.5 62.437012
33.170967 43.5 59.066086
54.204624 30 52.299274
82.429878 40.072655 79.656799
90.793549 30 80.846901
45.527458 30 86.533081
37.33371 40.663311 46.587421
89.486595 30 91.706886
106.99397 30 59.408325
52.427158 30 112.85091
38.674339 43.5 88.473686
62.845688 30.923874 118.71158
84.344292 30 56.650932
60.950962 30 77.038551
70.281441 43.5 42.753372
90.258575 30 52.488159
67.117172 45.344219 79.059929
44.718044 43.5 74.133171
34.39373 32.564812 95.421524
47.447498 30 102.73055
88.044197 43.5 41.686035
119.4577 35.556168 64.635132
42.469799 43.5 100.20445
61.803146 43.5 100.87021
66.811745 32.39212 72.267258
73.705742 43.5 98.413513
113.87894 43.5 86.628288
69.219032 34.381439 68.54747
82.715431 32.580708 119.79701
30.50028 41.005135 57.082169
96.44519 43.5 60.197182
83.944016 48.474808 64.238022
83.663918 34.633137 74.608467
44.995033 43.5 105.80059
58.199707 30 108.47856
71.795685 43.5 31.901707
120.46776 36.441647 70.525032
47.34898 43.5 65.63488
45.501595 30 72.481255
103.47308 43.5 94.87146
50.153156 30 40.175362
90.967125 30 115.4796
66.251564 43.5 38.028046
86.92543 43.5 39.937847
29.396227 39.594994 69.473892
74.106842 41.54491 123.36329
66.17057 43.5 91.06102
57.050636 43.5 76.595291
80.551254 30 51.594162
54.89687 32.237892 115.74977
56.610413 43.5 78.911247
60.988216 30 89.185905
39.616535 43.5 101.53114
42.583664 43.5 93.465698
67.056808 48.437244 79.066002
65.710388 34.869961 30.356604
45.920364 30 74.119728
97.632179 30 75.771248
90.219238 30 70.166473
71.295685 44.567337 59.363361
89.43943 44.578743 67.980484
57.897652 43.5 115.98886
81.636574 43.499062 28.710754
91.060631 43.5 118.60689
123.50475 42.062393 74.588287
35.384697 42.724079 102.72827
81.849777 45.317558 69.373749
79.83078 47.5588 82.478775
96.604271 43.5 88.056381
40.716713 30 80.008278
102.03285 43.5 88.075867
73.138924 30 48.9319
104.02142 43.5 73.467201
110.34126 30 87.632324
111.31641 30 68.548965
72.092484 38.181343 120.64026
50.622841 30 91.871323
114.93867 42.363602 102.4921
86.451485 51.243515 68.331635
69.341667 45.592827 68.170486
80.702309 48.512978 68.137863
64.55011 43.5 48.2463
89.583687 30 68.232704
83.129486 30 89.771805
81.259338 31.607378 80.925194
103.11499 43.5 68.703102
51.597443 43.5 90.053925
95.902069 43.5 57.953796
76.972961 31.646072 66.614685
68.754784 30 87.703209
85.376076 43.5 106.64722
96.882874 39.536598 34.624786
100.4399 30 110.38054
102.45538 30 93.17984
96.037666 30 62.454613
101.52335 32.87027 38.066624
72.103058 49.002007 61.451138
74.746475 45.105419 66.144958
80.681046 31.296638 68.530365
59.995399 43.5 85.219498
72.104141 43.5 29.262516
43.638504 43.5 82.336937
108.62965 30 100.32037
82.258698 31.536404 79.634933
69.2771 43.5 119.22083
108.29308 30 69.919563
74.444824 33.150604 66.371376
43.915012 43.5 57.025089
39.647339 30 53.332745
94.262787 40.436054 32.647255
67.160339 30 102.20184
46.529568 30 88.937248
81.903549 31.858189 80.158142
114.68753 43.5 62.327309
59.503284 30 37.816254
57.446472 43.43214 31.118435
67.261101 35.884914 29.992565
89.432327 35.869759 31.67638
49.757378 43.5 90.115303
122.71643 41.039482 69.699371
42.079998 43.5 71.507423
41.278839 43.5 64.004448
66.260742 38.65461 75.191208
70.090881 48.772709 82.451935
87.369949 43.5 111.16002
82.439743 43.5 40.835236
42.945957 43.5 94.207077
93.569168 43.5 69.229805
86.185684 38.094818 30.660469
67.762466 35.10215 29.962605
120.26363 36.930153 68.66156
85.947433 43.5 116.09196
77.885132 43.5 92.58371
90.894196 43.5 108.31891
98.06739 43.5 83.761627
30.022945 30.460896 80.588402
36.917206 43.5 58.511818
55.412094 30 62.731308
48.761974 30 55.174049
45.722488 30 44.247261
84.897903 43.5 48.48608
83.397606 49.841454 78.075127
108.23412 30 71.937294
105.52907 30 82.569061
80.406212 52.337471 65.327354
45.383766 37.742687 40.171478
33.577019 40.081551 54.613056
41.492962 43.433472 41.676678
33.350922 30 65.904274
68.779091 30 45.303841
96.605911 43.5 105.83894
71.797707 43.5 44.279186
51.263809 38.645321 114.1503
37.44817 30 67.583519
72.613014 50.704659 83.634354
45.575363 31.754852 40.409206
111.34903 33.164867 102.33833
71.326157 47.164612 83.100731
29.319494 36.788353 76.458679
100.84845 30 59.361488
62.865089 30 71.54882
111.33726 34.874275 102.55043
51.658337 30 47.453926
78.45166 34.722256 120.45241
77.938965 38.957729 120.72247
41.42606 43.5 83.948059
108.27643 43.5 79.076378
69.82341 30 92.421646
112.03019 41.060516 44.406578
63.890739 43.5 91.753441
48.731838 43.224068 35.005768
98.993637 43.5 37.906799
52.59277 43.5 51.050098
81.923889 30 37.502899
44.918648 33.304821 40.875294
66.229897 30 56.302307
80.601578 30 99.004333
61.625687 30 48.050526
86.71627 51.930363 80.784042
66.303955 47.821117 76.931747
33.396465 30 60.815197
89.392319 43.5 31.671432
87.655121 43.5 40.963634
91.92894 30 69.860382
38.030113 30 99.914307
94.369965 32.871792 33.864758
96.404167 30 63.093964
83.680328 30 102.7984
83.621544 30 115.24812
113.24393 30.724009 99.389816
36.711895 41.456532 45.492558
112.19952 43.5 69.882103
95.202492 30 39.217419
104.77724 32.724876 109.34987
104.79792 30 49.156544
111.27007 30 80.448196
83.049225 43.5 39.520676
78.258408 30 98.634163
42.272186 40.852379 40.225548
97.58284 43.5 79.534363
68.017532 43.5 43.280357
101.17721 43.5 90.769386
84.071732 32.4641 119.53373
100.69753 43.409748 114.76675
30.187454 43.5 79.201241
106.56295 30 90.749649
64.974106 41.407139 122.25282
60.563107 43.5 33.964516
29.843796 30.196028 74.164612
76.610786 30 88.720924
80.619255 31.146484 29.969902
42.46291 30 81.746857
96.883392 43.5 86.264275
63.14061 43.5 47.528656
112.80856 30 75.33316
70.389702 30.409185 29.937641
81.579895 43.499996 58.084957
57.491058 43.5 81.416336
75.490379 37.614815 29.295238
103.72134 43.5 105.44255
107.13406 43.234077 39.573135
98.974884 30 90.919418
88.396378 43.5 48.51767
99.696152 43.5 79.510521
105.15321 43.5 51.308315
84.826851 38.369675 119.68105
119.49539 36.943214 85.458984
54.879852 43.5 59.222752
119.2278 40.720695 57.853218
113.18878 43.5 53.520172
118.75238 30.196358 63.782894
109.22499 30 94.46447
85.846275 43.5 106.04914
71.435394 47.345024 88.848755
71.678459 43.5 117.5078
114.13339 37.609749 51.376907
89.883736 30 56.948792
77.664108 30 49.366302
120.39452 36.900288 69.665703
44.957375 30 50.891338
57.650856 30 43.262451
89.320412 43.5 60.336559
46.765289 34.56316 39.230408
79.970726 42.43642 26.780279
29.66733 37.894093 80.949188
49.608078 43.5 103.45801
90.714996 30 85.199287
66.694542 43.5 112.63504
65.92836 30 38.815357
46.325848 35.3769 110.51262
27.228519 43.243252 76.854485
88.654724 49.73243 74.881477
95.187141 30 101.1998
46.425541 43.5 41.252781
67.082626 49.522789 70.847931
93.427917 30 42.435448
41.165546 30 83.315308
62.160599 51.569908 72.099541
51.521568 30 94.216995
59.991123 30 104.57775
37.648281 43.5 62.015697
105.98866 30 78.055466
56.806099 43.5 50.532429
119.82621 35.431637 83.6045
72.147293 52.337471 86.891594
56.710102 43.5 101.60742
77.982491 34.341045 29.544006
116.16286 30 90.437981
117.82312 36.161591 90.887489
74.566269 30 43.241783
76.389664 43.5 109.79422
112.85854 43.5 87.052582
49.491096 30 106.18902
82.798271 47.571693 70.705086
100.11751 30 93.083771
85.921127 43.5 34.650322
75.947777 43.5 107.41731
92.11039 30 43.878113
37.075916 43.105225 104.47617
116.40582 43.5 68.20031
77.631485 44.288013 83.445053
113.12888 30 95.669662
71.378624 42.770401 123.19463
70.720238 30.000002 60.263351
77.292877 48.018864 88.93045
39.765274 32.407223 103.69931
70.149086 45.792107 89.210266
114.55502 32.776031 97.414612
91.108589 30 107.06013
46.325047 43.5 91.975342
37.487316 43.270374 45.46624
109.35683 30 63.760231
34.038773 43.5 95.007355
82.656425 30 91.73407
60.033691 43.5 88.454613
81.016159 43.5 119.51788
81.362534 41.850971 68.917862
68.372185 40.663414 121.71228
63.100445 43.93137 87.041534
86.587624 30 52.123192
68.41729 30 88.835716
109.57322 43.5 49.478245
63.340004 30 96.327072
89.563721 30 69.558929
52.277397 39.544346 35.089111
102.71643 43.5 64.832573
82.118729 30 90.565277
37.10857 43.5 76.888275
71.007805 52.337471 64.180557
110.80497 30 98.31279
67.18026 30 90.363686
83.380623 30 65.830688
77.601883 43.5 51.838898
53.286907 30 75.436798
65.727821 30 43.301559
95.224396 30 60.170315
61.570629 30 57.912487
99.857773 30 61.222488
85.464294 30 100.35445
119.944 39.401657 65.682213
37.176544 30.859461 100.05
43.864937 30 82.544876
36.725498 43.5 55.643105
90.221405 30 41.152328
98.720673 30 97.500076
47.351288 30 100.60946
80.685913 42.32827 81.729538
83.217941 33.116676 77.670097
75.093697 30 92.874657
92.759575 43.5 67.989845
54.227158 30 55.622009
90.644775 30 101.29631
31.622768 32.672932 61.403297
83.41655 30 64.723404
94.942909 43.5 88.03511
120.4464 43.499214 64.032478
103.2247 30 55.253502
48.847851 39.679306 112.80482
69.602554 43.5 93.410927
120.68772 37.115154 76.317314
82.3153 43.23159 70.062927
117.18478 35.260822 92.390137
99.909508 30 40.954304
117.26036 30 89.379662
73.041046 43.5 118.22835
36.047462 30 68.43335
54.305283 30 94.930183
65.224846 30 104.53053
63.256519 30 67.405334
88.883438 43.5 40.891567
77.195358 46.094475 66.396904
32.54166 39.895645 57.159729
50.605171 43.5 59.921097
83.182968 44.212532 71.642319
116.24917 40.409767 96.450668
31.482849 40.087605 90.417725
87.098679 30 71.21299
66.254288 38.710728 75.052933
67.500999 33.416386 79.302521
40.848755 30 90.596924
51.377586 43.5 43.477722
46.01973 43.5 104.65932
36.977558 30 92.329506
28.839512 40.605873 66.6437
71.996803 46.810528 66.633942
48.33783 30 47.891769
98.34362 30 38.404037
111.72949 43.5 88.971771
91.761177 30 94.200684
116.85888 40.105007 55.490898
45.131584 30 75.385674
64.62854 30 42.973938
67.710892 42.134541 70.06234
53.483528 43.5 35.533836
105.28494 30 103.30366
103.48096 32.328388 39.593632
90.184357 43.5 101.21587
62.036518 43.5 94.986298
116.09116 43.5 94.660133
103.6823 30 82.449493
51.701492 43.5 102.18245
105.33752 43.5 64.836014
94.821991 43.5 59.959938
104.66537 43.5 39.94989
40.950527 33.451572 44.820686
53.830673 43.5 77.976891
117.80222 41.916527 52.217155
30.456068 38.176224 64.642685
84.087646 43.5 97.737007
49.199417 43.5 110.61406
88.579887 30 95.226822
60.290783 43.5 45.127628
60.073212 30 42.528835
37.658264 32.758392 49.069805
119.07088 38.975464 87.534462
39.187283 30 53.740639
119.74722 38.402885 65.457932
33.380348 43.5 81.615936
90.96006 30 94.681564
118.15442 37.846497 90.103531
45.122711 30 44.911209
34.498398 30 73.556297
39.695427 30 97.801369
110.52878 30 62.419678
85.439331 30 89.746475
90.524849 43.5 118.92487
29.620098 34.594826 79.227425
47.440002 30 108.83351
62.20507 30.147615 31.715225
64.741875 30 79.460403
46.654346 43.5 52.296505
107.35536 30 57.326096
59.593536 30 39.365074
116.83414 30 71.173508
65.89267 43.5 96.085915
61.164791 30 97.95742
66.49147 44.483574 77.419037
88.107826 43.5 48.251587
47.64053 43.5 97.497169
77.535286 43.5 108.10918
28.450037 40.740875 65.50444
98.7957 43.5 58.0905
74.606285 30 44.079041
72.439674 30 115.95152
67.425819 30 110.84248
73.329727 38.260765 83.574188
63.161522 30 108.3509
79.881332 52.337471 65.400772
106.96775 43.382614 110.0663
96.35685 30 59.471806
43.555107 43.5 90.4991
67.224457 43.5 119.27193
67.675659 48.100719 62.960068
35.379559 30 62.444672
81.414093 30 59.793564
54.734596 43.5 107.21138
68.694572 30 65.619987
57.665684 43.5 43.146183
85.968666 44.703224 63.457062
82.938049 44.236309 71.096176
116.22839 33.102032 94.197998
89.88588 45.629166 72.283043
82.272118 30 105.08144
70.163002 35.627914 67.784241
119.39305 37.691074 64.104523
68.862465 29.999998 67.655945
29.094217 39.550686 73.421631
75.058044 43.5 50.759953
61.824905 43.5 61.181007
42.510464 43.5 65.085121
110.54877 40.852547 43.110134
96.70195 43.5 38.363731
62.905251 30 88.725922
46.56636 30 58.28553
59.336658 30 110.39664
47.450348 43.5 56.81855
82.469559 39.3041 120.27344
48.370178 36.496967 37.867184
121.66547 40.551586 77.727501
90.71032 44.469292 71.132439
46.206253 30 82.614151
120.08258 33.653576 81.241447
100.28719 30 55.720886
83.158768 36.536057 30.039968
79.779404 40.713734 27.828468
54.722298 30 111.18326
110.06943 43.5 101.82548
40.555397 40.233551 44.074909
53.68605 30 91.466858
102.61424 30 76.859665
30.321184 43.5 72.862305
41.499119 30 96.140869
77.390305 40.479626 83.444122
45.114658 39.192657 40.21217
30.357504 37.013161 65.190071
83.693336 30 102.48981
62.876945 43.295708 121.11604
100.83603 40.828453 34.896099
79.004288 30 113.80258
89.391495 30 67.406609
58.067142 30 53.654343
104.60574 30 71.904716
99.461327 30 37.409439
60.321815 30 95.806564
91.82077 30 37.22805
59.652321 40.579777 119.23965
84.461685 30 103.22458
95.430672 43.5 57.957493
63.079552 30 38.353031
95.251686 43.5 40.587219
89.012459 47.058037 71.6707
54.827919 30 79.584846
73.68293 43.5 55.363289
84.398964 43.5 53.977188
41.076504 43.5 105.44093
74.881577 49.947773 83.946877
74.389442 30 53.360626
77.948196 52.337471 84.161232
115.41057 33.493805 95.910004
91.004906 43.721066 81.577072
52.341557 30 101.40164
101.88303 43.5 72.135071
83.906265 43.5 36.298302
89.469727 43.5 96.900764
71.591568 30 45.041908
114.38104 43.5 81.932014
68.875977 51.177925 86.774612
68.598595 52.337471 65.890297
46.556141 30 54.800419
52.102119 43.5 62.304276
107.89275 43.5 49.907394
81.569351 46.676556 87.981316
83.554405 32.122272 73.888382
48.481598 43.5 89.989479
68.172813 36.243156 69.611732
49.177113 30 101.7643
50.942131 30 93.00621
66.66468 30 109.96584
68.063095 43.5 57.280556
62.92865 43.778961 62.756702
82.598846 51.985558 85.614853
71.225662 30 61.980766
79.210648 38.760311 29.398285
68.248779 44.606735 69.273788
97.069687 43.5 76.634254
47.606804 43.5 65.244492
109.81697 30 57.435883
69.378799 43.5 32.00515
87.151596 43.5 58.902824
70.236938 30 62.423756
122.88071 42.720322 68.222778
71.723877 44.104805 91.332397
41.531883 43.5 52.04213
114.51759 30 65.419571
36.963654 38.752949 100.49974
69.340134 47.512032 81.872116
57.659592 30 67.342575
103.89786 43.464993 37.804642
54.534931 30 75.386406
87.923935 30 34.072529
94.477402 43.5 106.13901
33.978752 43.5 94.335136
47.492363 30 63.44392
62.257938 30 88.63707
82.449944 44.716995 89.056656
115.54546 31.692074 95.442787
50.610664 30 105.06807
75.103706 30.185455 83.590614
32.827972 40.354362 55.585884
60.854687 43.5 45.722645
97.944084 30 43.299759
64.388245 30 50.02496
42.889118 43.5 55.461227
77.150726 30 94.713356
77.366646 43.5 40.861618
52.99551 43.5 85.103973
82.592117 50.736057 86.026985
116.65488 35.279953 56.363075
91.306686 43.607117 68.574066
119.43498 39.10165 86.269897
82.844673 51.713459 79.362785
92.541367 30 42.380928
115.64089 30 75.26593
45.644188 30 56.627819
97.748611 43.5 63.738327
114.65195 43.5 79.506332
116.39627 43.499996 54.040222
83.689537 30 40.626633
79.39727 31.323032 29.823061
39.375088 40.380928 104.82385
56.517189 30 79.626518
54.382813 30 49.594379
44.85577 34.420448 40.838882
117.87958 32.689045 90.095253
51.465576 43.5 107.4034
70.522316 30 111.35966
66.206863 45.761871 76.160294
88.964066 47.232128 78.274155
118.76004 41.617264 54.319725
116.1275 42.119278 100.71819
79.106461 43.5 109.66409
52.986519 30 63.284958
31.050215 30.08107 64.90094
65.177727 32.080067 30.64584
105.31883 33.074394 41.097313
28.375225 43.5 76.779327
116.22834 30 57.336441
86.898308 43.5 109.31842
89.233017 34.53149 31.71047
43.58392 43.5 64.292984
46.248421 30 70.600845
30.452408 43.5 76.688828
60.31525 43.5 37.88237
71.671234 44.718712 83.20607
107.58275 40.71838 40.53875
60.273277 30 93.25
61.185921 30 40.635117
120.1755 37.715225 82.015427
71.982468 51.976326 66.540733
55.281483 43.5 114.84682
70.68483 30 111.25404
119.08968 29.999998 73.301651
78.123856 30 58.098164
78.286118 31.7885 67.034134
84.137146 30 75.274376
101.47668 43.5 99.722458
103.85114 30 51.740234
107.37862 30 79.768547
33.9566 30 70.78923
89.557343 43.5 87.632133
55.679726 30 40.202324
68.028061 40.669838 121.70851
77.513184 51.871758 87.839989
104.34497 30 59.277958
65.165764 30 46.496239
77.525764 35.290661 83.304932
52.144989 43.5 45.586334
35.274696 43.5 56.407036
48.15799 30 40.391327
51.53101 30 50.636078
62.245613 43.5 95.928436
85.888809 43.5 30.538307
92.983795 30 115.69926
77.192818 30.000002 86.071297
29.013796 40.200336 80.037964
96.11731 43.5 63.887733
58.645954 43.5 96.952698
46.820938 43.5 85.854568
44.140991 30 44.937538
43.713558 35.410954 108.23339
69.900635 30 88.866165
52.264877 39.976948 115.10122
30.817385 43.5 79.21196
84.481384 43.741287 89.427902
52.763813 39.393829 34.847736
90.412987 43.5 86.929924
45.243351 43.5 66.748482
111.4572 30 76.095413
104.66913 43.5 65.302933
30.915979 41.871193 95.161026
84.515671 35.999268 119.666
78.551826 43.5 34.54393
120.67735 38.108406 77.242226
45.911266 30 89.523079
72.120552 43.5 33.323006
90.73024 43.5 35.00444
82.96209 35.856407 78.486862
116.23584 33.060509 94.177017
77.380165 30 105.58076
29.904776 43.423897 89.261185
113.18993 43.5 52.934441
31.883995 30 77.755661
47.926163 30 96.509697
101.02448 34.428619 112.40015
92.65712 30 87.486099
31.256908 30.989758 87.049675
68.517601 30 105.89183
90.262474 39.974815 118.50171
75.126144 31.18758 66.390587
111.40708 43.5 68.714478
78.757584 30.110548 30.039621
61.551228 30 89.268555
107.97141 43.5 55.690659
106.6227 30 67.025444
66.640656 35.016808 30.163948
78.683586 30 88.851295
86.355011 30 46.344189
58.226944 39.990372 32.049454
88.484573 50.296402 74.263962
115.72398 35.732368 54.354324
112.93137 30.587381 99.858337
76.523476 48.410271 88.932495
92.280685 30 111.49472
112.31282 43.5 55.537025
61.241631 30 39.463562
118.05873 43.5 90.340714
85.313774 30 53.786839
85.930977 40.775177 28.685284
53.253227 43.5 66.414482
66.245361 51.936817 77.017754
73.630959 43.5 101.37906
57.01965 30 104.18469
96.504684 30 52.06036
62.704659 43.5 50.508438
54.401775 30 83.04821
67.543648 30 84.105232
84.542915 52.337471 74.857788
100.58245 30 68.98967
36.55772 43.5 82.949387
76.476974 30.394022 66.532333
109.36573 43.477364 42.953785
45.246056 30 100.57256
41.655067 43.5 101.33498
55.2024 43.499996 71.985191
81.336952 42.644108 81.130608
68.565079 30 84.110435
81.20015 43.5 109.72138
32.387375 30 71.248337
64.515945 30 97.512634
77.936485 43.5 107.38403
71.237816 50.18248 88.004616
95.967491 43.5 72.491089
26.754412 42.239384 79.981789
102.72569 30 101.37133
101.86513 43.5 58.340034
55.770237 30 53.647717
84.772423 41.237061 122.19743
88.156158 43.5 93.859818
106.62251 43.5 106.63918
65.344757 30 34.838852
69.594048 40.624512 121.65781
66.654861 42.636391 27.316481
52.658672 43.5 87.592384
98.493942 30 77.015038
60.687771 30 74.570442
54.817703 30 49.420845
93.93615 43.5 37.642132
116.03999 30 63.621986
51.924652 43.5 83.310272
74.743484 43.882702 57.998978
50.952808 30 81.388031
87.445862 40.596096 120.1994
47.455975 43.5 90.879974
34.569473 35.9114 96.233902
93.734482 43.5 39.762703
112.86142 43.5 87.102737
86.733017 30 57.600578
117.54807 41.384499 97.843048
65.920303 30 57.271011
31.873396 30 82.592743
77.09964 31.875416 29.631256
63.728588 43.5 61.086193
98.043633 43.5 104.94078
44.036289 43.5 99.847885
46.282524 30 108.63666
93.814545 30 84.410652
63.645428 33.130638 30.957571
110.67888 30 83.804398
60.555489 30 92.519295
74.450157 30 106.83687
105.71466 30 67.681931
72.186035 43.5 32.183369
80.34758 43.5 100.90666
85.889473 46.458229 84.798019
53.300072 43.5 88.365982
77.612869 43.5 93.079926
62.044144 30 64.734612
101.12697 30 84.800797
91.481995 38.756229 32.276649
43.142624 39.474487 41.93446
90.756271 30 55.213531
86.6605 30 108.31262
31.754154 43.5 89.02597
70.507561 30 95.995987
67.647354 51.640858 69.849854
95.221382 43.5 100.43709
74.761925 43.5 31.866867
70.403488 43.5 113.34377
29.552134 38.897266 80.741135
73.495354 40.048813 83.63739
36.028233 30 89.812401
44.612011 30 55.100563
50.457001 43.5 111.17485
109.15396 39.685989 44.231499
43.059654 40.4151 41.206997
80.381508 43.5 112.1998
90.270905 45.23735 77.185837
74.033058 32.238125 83.57077
63.877045 44.327309 86.997528
100.5124 43.5 58.760864
70.948029 50.539379 62.185349
100.2533 32.381378 112.78402
55.629601 43.5 45.265797
64.359406 43.5 31.129791
52.017101 35.720749 35.547203
59.165501 30 35.032005
86.412148 52.337471 70.954285
113.27458 36.54781 50.043472
88.060287 43.5 44.99015
103.23944 30 105.52563
82.91272 47.737606 70.905098
82.806 34.451836 71.230408
65.796989 46.229397 86.538757
57.710194 43.5 93.32547
57.662262 30 61.072304
52.665123 30 87.838776
99.678558 37.128212 36.528137
30.361301 40.296078 87.492897
71.219376 41.82827 67.053673
76.75013 48.312229 61.072319
29.341253 39.657482 69.744675
37.88163 43.5 84.846115
67.805931 43.5 116.64557
56.174595 30 104.83788
66.546692 43.5 113.21715
61.239098 43.5 87.122818
57.703129 43.5 114.33837
113.02468 43.5 68.24791
52.1772 43.5 55.409321
32.374702 43.5 68.034836
60.588974 30 66.289749
27.342003 42.876724 67.377831
61.753616 30 67.2901
91.162804 43.5 45.941372
116.83273 43.5 87.051605
46.906723 40.655178 37.166912
29.582726 36.88604 69.861107
102.46202 30 79.668892
104.40649 40.570404 111.4014
51.732082 41.175114 32.853867
117.63503 36.082516 91.383865
66.394386 34.922123 76.076439
62.327396 41.157768 28.573729
43.414211 43.5 62.961311
55.576691 43.5 55.194687
114.37083 30 93.895493
89.441437 43.5 47.359413
35.816685 43.5 91.681435
66.241943 36.068298 30.176233
65.415474 43.5 98.194305
56.465172 30 36.241447
69.57193 30 39.757572
28.062998 43.435974 69.592468
78.184555 43.5 50.281109
42.532127 43.5 97.720245
43.707748 30 53.2024
47.041904 43.064491 114.11964
85.092255 30 41.353657
61.338318 47.78196 71.208054
74.866135 46.665977 60.447468
69.650276 43.5 104.8906
42.286774 30 94.868996
38.677086 30 59.11145
63.653641 48.418545 66.776863
107.20918 36.343819 42.603737
85.508682 43.5 102.18304
61.965916 30 52.346199
67.812042 43.5 96.595764
101.2701 43.5 93.889893
55.54615 40.606667 32.312222
91.257217 30 40.818352
59.190956 43.5 36.365196
42.648342 30 86.818733
97.513504 30 87.525673
36.598995 32.319267 99.297394
87.157089 43.5 58.849148
78.467407 35.399052 29.488745
93.989487 43.5 116.20612
64.987549 30 66.255028
96.075302 34.697437 115.41594
79.160286 43.5 36.193386
41.230438 43.5 78.004944
33.624165 30 79.339165
116.57289 30 59.31036
87.906693 30 78.843864
84.241013 43.5 53.581585
52.657181 30 93.756195
88.351166 49.555859 78.101044
69.632111 48.496922 87.921059
100.17721 30 63.173939
70.419319 30 38.331341
98.623795 30 112.85764
77.966537 35.990582 120.57195
52.256958 43.5 88.543373
109.84106 43.5 88.692123
116.41873 30.394386 56.681656
61.784386 39.568386 31.009222
64.410851 30 43.779911
104.32997 30 96.109589
107.19475 40.785679 110.07834
50.418827 30 83.793793
90.606094 43.391506 30.218418
95.574699 30 98.085312
92.446808 30 50.03196
47.473404 30 61.748276
41.298473 43.5 84.788727
70.262108 30 115.09697
67.277313 30 98.345901
118.33888 43.5 70.153091
38.738937 30 71.332413
40.482178 34.850975 104.79011
74.754715 31.194653 120.38436
117.18048 30 62.098236
92.105164 30 101.93291
122.41669 41.957508 64.848541
26.681072 42.472206 78.689789
50.05254 43.5 107.7845
74.928444 30 103.63506
31.550646 40.589176 57.458462
72.163963 38.5457 66.733055
79.894234 33.237488 82.124748
76.807755 43.5 39.85574
111.99794 30 68.663101
96.183029 43.5 93.10537
32.793365 30 73.343254
45.5411 43.5 76.382294
83.874168 43.5 93.230873
75.056412 30 60.035477
83.220062 30 117.17418
100.89142 32.170067 112.33224
82.975769 43.5 33.175797
99.474449 43.5 68.820152
78.108833 48.17543 66.646584
69.807587 48.978916 67.73291
108.86989 42.711166 40.469707
67.62632 48.616508 69.979179
33.270466 43.5 74.067543
53.021652 30 38.718628
70.589684 51.9286 62.694744
71.069397 40.081589 67.157761
67.298798 45.218185 79.379601
57.040623 30 72.197205
89.506752 30.028606 117.66994
44.320148 30 81.831528
77.890404 43.5 121.05728
83.052658 43.939552 89.875244
110.06783 33.000397 46.046486
89.369339 30 111.76735
53.680969 43.5 106.65991
54.879517 43.5 83.054413
109.51447 43.5 52.10976
114.55018 30 55.234142
104.14588 40.032066 110.75274
52.112984 43.5 71.072639
29.274193 43.5 68.225922
81.543678 30 98.45549
91.499222 40.557686 31.252533
116.97198 43.5 62.25705
68.756256 43.5 117.77325
79.773033 30.089272 30.150452
44.593536 30.000002 50.466103
76.515755 48.636501 88.872223
30.660027 30 68.859009
120.62798 35.390614 76.262428
79.116859 46.319073 82.872269
51.02504 43.5 58.650234
83.301476 50.366779 64.370178
77.218933 41.871845 83.518234
97.267273 30 66.117004
114.53644 30 82.284615
97.180359 43.5 90.574371
96.33857 43.5 47.161522
104.66072 39.147484 109.96548
107.74855 30 48.427605
31.497057 30 85.858093
100.60328 43.5 84.407707
92.852013 43.5 58.413544
68.838074 30 111.20915
86.053169 43.5 54.425472
52.4021 30 88.01532
58.618313 43.5 116.51416
113.78397 30 76.419235
111.50922 43.5 93.142868
109.26588 43.5 75.958374
59.158367 43.5 90.585617
119.11296 43.5 61.097691
120.0426 35.802391 82.521637
89.488235 30 86.506172
95.734459 43.5 41.206768
55.861801 30 49.279881
120.70871 42.180191 91.242332
55.910675 30 84.221016
80.393005 42.964516 68.019791
52.242233 43.5 57.276108
70.75264 30 54.183891
72.083351 52.337471 65.753006
53.346176 30.000002 105.84549
38.355587 30 55.241142
119.08382 30 77.527496
39.767555 43.5 85.667755
34.224075 39.848045 96.355026
78.928192 33.007233 120.30424
116.82419 30 68.883224
112.01768 43.5 99.528168
92.053909 43.5 111.92432
100.44049 34.334881 37.211609
30.71417 34.579964 64.256165
110.959 34.921333 46.95475
90.58017 43.5 63.057442
34.023277 36.018024 95.164101
89.659851 30 116.24483
29.232456 40.61961 64.500618
55.954632 30 85.212364
60.691109 43.499336 119.50278
54.541264 43.5 80.386032
107.75192 30.829857 43.607151
70.023117 30 61.335922
88.57634 30 51.19519
83.662247 49.97963 85.475006
30.10862 41.18383 92.399979
48.656319 30 49.511585
59.841862 30 83.407173
42.268593 42.42691 110.7598
40.412117 43.5 93.487442
34.04805 43.5 71.888885
66.045288 45.115982 62.312481
98.975967 40.692375 115.7962
91.959534 30 97.576775
75.405182 43.5 35.492126
57.390366 30.000002 39.820099
114.73586 39.701653 51.874203
100.26181 30.992559 112.694
57.521416 30 53.617165
29.899725 41.154243 91.786224
39.389381 43.5 61.079601
107.02226 35.989067 42.439857
69.970169 36.802261 82.113312
79.484955 46.383247 82.667435
74.642242 30.915985 120.36817
99.251938 43.5 68.803749
61.15493 30 69.138382
42.238064 34.156731 43.370556
33.724987 30 74.326294
48.819424 43.5 64.218842
72.039444 45.101082 83.34919
101.6757 30 82.489929
83.743912 48.256802 76.736931
56.720917 30 103.05114
96.621597 43.5 100.01073
68.698578 44.353851 90.059723
102.12494 43.5 83.031113
85.684647 43.5 56.876369
37.249115 30 89.430573
33.94828 43.5 97.061432
45.81002 43.5 71.741898
96.257362 30 68.161812
90.219299 30 60.55381
65.658028 30 43.027969
39.280685 30 88.28479
104.27502 30.797709 109.65614
89.451355 46.880886 74.428116
75.850349 30 85.577133
37.030525 43.5 86.867203
77.67234 30.963913 29.707836
80.439026 31.060246 120.04779
102.51289 30 95.336838
75.149475 40.735752 66.218857
39.446404 43.5 45.579704
72.85276 30.403435 83.318321
72.298233 43.5 105.80961
119.53607 30.668688 83.579636
93.684555 30 100.14522
45.59766 43.5 107.10793
107.49908 43.5 71.604912
70.513 41.297745 67.438766
41.887527 43.5 52.885017
120.44297 40.553139 85.960373
68.417397 30 97.582329
86.568451 30 51.514824
101.04863 43.5 72.850204
103.11484 43.5 50.599937
30.697521 35.137711 85.887421
56.151291 43.5 36.376404
74.92244 30 63.230522
89.111923 43.5 116.40663
73.137131 43.5 113.6846
109.00866 34.486359 44.677696
83.523438 43.5 35.006485
41.018475 43.5 67.067497
88.259598 49.793842 78.203278
108.73571 30.459574 44.725449
43.681576 30 95.228607
62.650547 43.463058 120.47192
56.487312 31.241734 33.556767
97.438469 43.5 80.442902
82.366409 44.068024 59.993896
28.068207 43.436356 69.55825
50.710697 31.379131 113.34908
44.421917 43.5 86.230179
60.816727 34.354794 31.709496
96.416855 30 88.885712
117.1205 41.711769 51.076027
114.42296 43.5 98.840576
73.772522 44.638737 90.94413
74.069443 33.341423 66.405312
92.716232 43.5 62.229015
103.43073 43.5 56.423912
95.801018 34.610645 115.55238
61.529766 38.29797 31.287603
38.531418 30 77.912308
78.55191 30 47.095116
66.564789 45.106285 88.048042
43.179344 43.5 48.301712
59.384331 43.5 60.917065
102.17849 34.254913 38.456383
76.572388 51.895409 66.15744
54.779083 30 42.92395
55.912235 30 36.549068
70.267593 44.464302 82.476082
70.141846 43.5 120.00227
83.725967 30 106.1805
39.512684 30 59.780098
58.865265 30 70.577972
55.248692 43.5 54.273903
49.974686 30 53.269928
85.077003 43.5 53.151802
112.80367 30 95.312469
83.787453 49.49313 76.630684
60.293171 30 98.144958
82.603294 36.915234 70.744766
64.621048 30 65.599983
81.70462 52.337471 81.272797
85.23497 30 44.110989
51.273422 43.5 39.969746
78.184647 43.5 111.13348
81.597961 30 105.73524
106.69086 43.5 80.172318
80.141029 43.5 36.128761
103.97566 43.5 67.11145
110.33219 43.5 80.886375
35.328468 41.013531 101.99158
52.592529 43.5 75.460579
74.452713 44.361977 91.306213
99.648582 43.5 62.039494
36.977406 43.5 92.611206
53.676933 30 39.217869
57.302246 40.211746 117.7513
68.994675 52.337471 68.228592
100.55 43.5 75.94519
35.499451 39.916527 98.698074
71.915703 32.923542 66.92923
75.742615 38.811256 29.2071
57.034214 43.5 113.69265
104.75018 42.035793 36.693398
37.906582 43.5 92.087051
62.61433 43.5 110.58999
37.299583 40.591965 47.16399
32.617218 32.27626 91.377502
65.805656 50.814125 65.297546
55.587799 43.5 93.880318
116.87063 43.5 87.483276
120.67281 37.003998 76.72937
115.20513 38.920433 96.96434
58.995262 43.5 48.691204
81.387291 30 100.28686
77.251915 33.992767 66.637001
62.425011 52.337471 74.758965
86.549805 30 71.755219
64.172363 41.693161 27.794201
45.06908 43.5 59.75486
55.686371 30 64.215912
92.351791 43.461727 118.8219
84.232277 37.705978 119.77346
58.776489 44.41246 74.050415
53.194595 30 93.882378
33.079086 30.09713 91.651352
54.389137 30 86.25457
77.531982 30 47.930435
59.67215 32.127609 32.230812
117.43465 43.5 64.965149
111.36277 40.543892 45.651215
73.506157 47.978264 83.786743
86.819229 43.5 40.921375
95.714882 43.5 46.201584
91.826324 40.66423 119.08644
64.956566 30 101.77715
31.68611 43.499687 92.528664
81.208115 43.473278 28.380543
105.27518 30 95.114441
86.380104 50.579449 82.135185
83.89859 43.5 92.091019
58.967804 44.307949 71.62693
92.737335 43.5 65.255798
76.939568 43.500004 29.040806
49.758652 30 75.368835
73.694717 50.732269 66.133339
47.148212 42.056751 35.285976
88.182266 35.729759 31.287571
86.909988 30 94.504639
46.803478 43.5 104.06383
65.547348 30 94.552994
77.016373 44.943108 59.450325
71.296776 30 101.47928
82.285919 51.143017 80.234306
36.418018 30 95.994675
56.662586 30 95.318649
108.72075 43.5 79.880478
31.312897 35.177155 88.146339
79.620857 48.594963 82.635689
99.298965 43.5 35.70472
115.93138 43.5 59.704762
55.857922 43.5 46.236244
51.86454 43.5 77.178261
50.06221 43.5 90.57489
110.29745 35.209373 46.092201
75.199791 43.5 103.82491
93.618256 38.484081 33.19677
82.070976 43.5 35.957977
60.230263 30 117.40999
37.074005 43.5 73.179749
109.68562 30 95.383644
52.246788 39.79348 35.0196
73.459084 43.5 106.34029
119.6739 36.398895 84.564438
91.427803 30 76.762695
69.176315 30.152254 68.690079
90.158066 45.341038 72.677345
62.599495 30 106.76913
83.156113 30 61.121128
83.603882 33.010574 74.217873
35.330223 30 86.910072
66.190231 43.5 47.077587
97.026703 30 93.383728
101.72298 43.5 86.621902
66.706131 45.950008 78.152092
39.753429 35.913498 45.966179
66.073586 50.71685 74.20459
111.04953 30 79.051743
28.69182 42.373238 60.636765
47.544357 43.5 87.115318
30.986956 43.160515 94.029839
45.448425 30 88.340965
40.736557 43.5 83.660904
42.802265 43.5 89.142105
122.56812 42.316017 65.573799
71.029655 43.5 47.579376
109.39199 43.5 87.096085
67.638748 49.996834 86.42012
83.381088 43.5 46.782486
58.054306 43.5 48.566105
111.44184 30 59.553829
76.283386 30 101.02528
76.180038 30 102.91959
65.827682 30 75.281769
82.993675 30 58.164665
82.928055 41.276791 78.799812
91.359055 30 50.084381
58.027061 30 71.386978
103.36124 30 69.065384
113.62732 43.5 62.602493
84.569656 31.143887 30.636539
31.113945 32.832092 63.120693
69.72464 48.651367 62.086189
38.576828 30.877392 102.04602
57.847694 43.775105 73.73484
46.024925 43.5 69.13475
102.85345 30 92.018814
31.26125 43.5 70.104538
86.031944 30 63.47929
95.253113 43.5 87.813889
99.456688 43.5 105.58094
76.369354 30 105.83766
79.42672 49.078804 67.244926
93.422653 30 83.046631
53.037361 30 39.490067
65.736145 52.337471 70.588341
37.433189 30 99.111717
43.463276 43.5 59.588768
52.159634 33.009777 114.328
90.174667 43.5 114.71066
61.458511 30 96.087479
55.994564 43.5 98.367851
109.38358 30 65.431305
90.121475 45.54332 76.470795
85.097832 33.253273 119.35197
60.762726 43.5 60.862019
31.095186 30.375029 86.060913
73.282425 30 114.18333
120.05034 43.5 81.070496
108.9707 43.5 45.557442
65.7603 52.337471 79.618469
87.241318 30 63.874462
44.849304 36.967651 40.649895
106.42359 43.5 104.76057
62.106697 31.049438 31.494331
46.679882 30 44.219147
113.92694 39.08345 50.795868
111.02793 34.129162 47.153801
91.156067 30 34.064278
92.499176 43.5 58.080795
41.052578 29.999998 68.117599
120.66867 39.207489 70.746048
110.41234 30 81.595016
41.67382 30 72.537033
87.455238 50.350044 80.18515
63.273026 43.5 61.19165
83.586411 44.82119 88.262794
71.575592 43.5 109.60877
78.072792 43.5 104.15097
118.09621 30.903839 89.186325
80.060257 43.5 96.241173
56.661217 30 94.841606
63.554729 30 84.573662
92.330368 43.5 88.676086
110.89022 30 96.601227
50.526264 30 82.257919
61.737167 47.818665 79.988632
83.551216 36.882523 73.330704
55.596764 43.5 67.776642
111.15734 43.5 70.321068
78.772224 31.179157 67.265724
57.376694 30 95.46978
58.520367 43.5 117.75536
58.969501 43.5 57.020763
86.184013 30 113.00381
110.301 30 97.797302
42.041126 38.337059 106.72141
87.181068 39.021915 30.819218
106.15619 30 97.343536
88.941528 30 40.521751
74.274162 43.5 37.827065
119.70994 32.668224 66.780182
57.670715 33.830639 117.09117
74.223083 30.525311 66.44178
93.800728 36.528557 33.353817
77.964043 30 116.15111
76.618439 32.292763 29.584711
98.351707 43.5 87.224297
53.557861 36.633694 115.35255
87.964905 50.764114 78.306877
30.62183 42.915176 56.121559
89.205338 30 43.622375
81.762695 50.407398 80.873535
116.10592 40.71088 98.601746
60.795609 43.5 112.25755
116.40934 43.5 96.381157
97.794746 30 61.129059
36.946541 30 82.796646
117.15292 31.283976 91.83506
61.948936 30 51.405151
120.67554 41.55162 90.931595
67.170303 43.5 101.22485
89.119972 30 101.2485
64.445656 30 109.92085
58.578445 43.5 36.390923
100.50196 41.462334 116.06306
70.634308 39.520035 29.287073
81.598526 38.501301 80.730713
69.420639 43.5 112.01599
78.847939 30 82.877602
33.724373 43.379116 51.564796
101.33837 33.081329 112.07603
38.132881 32.746731 101.60697
38.24662 30 52.845573
68.473839 30 49.539955
65.432732 45.566639 86.778831
67.252045 49.495705 86.324387
77.412354 43.5 54.74305
61.49025 30 51.87606
68.3358 34.633179 69.455383
107.02708 43.5 48.115509
100.57286 30 56.70372
106.29243 43.5 98.29467
88.422157 48.901604 71.468643
109.75475 30 49.705013
51.832024 43.5 43.756744
104.74387 43.5 106.06271
76.706116 43.5 39.348835
95.958603 30 73.980621
79.44883 30 97.85247
98.327621 30 40.765533
60.44606 43.5 101.56728
120.21154 38.208233 81.895813
107.06443 43.5 79.308548
98.818893 30 107.88036
104.08902 41.024357 36.824974
44.127243 30.076012 42.131649
52.8997 30 112.75984
89.80941 30 36.743153
60.179047 43.5 92.833588
29.464884 39.637993 81.201721
72.700287 43.5 95.578629
49.1572 43.5 79.731567
94.869545 32.34758 115.87277
67.188683 30 116.13924
113.01273 43.5 77.966721
75.243004 51.628452 66.027992
58.174736 30 90.427612
33.576977 43.5 66.9534
74.686447 30 30.277166
62.931595 30 51.566071
96.88739 30 68.397118
114.23161 41.046814 47.31601
78.309685 31.595688 67.047287
62.4245 30 68.737778
84.149597 49.77713 85.124779
32.148293 43.5 80.37088
119.84254 33.779301 67.181099
31.180286 38.280083 88.11293
65.454712 30 75.019257
41.019592 31.715363 44.876259
48.276619 43.5 57.309025
122.65448 43.306984 74.965454
107.87408 43.5 86.478348
76.821045 40.318039 28.652237
73.807007 30 52.246532
30.692228 37.079693 86.220963
66.802399 42.139694 78.21315
57.182384 30 103.4948
36.760277 33.683743 50.326427
52.536831 43.5 40.605614
53.730034 43.5 72.10598
84.265305 52.337471 77.794952
46.049026 30 105.26816
97.392448 43.5 89.20446
70.16597 43.5 53.984596
90.531929 30 95.879478
69.946945 43.943382 58.864609
86.90863 39.415638 30.668037
77.085503 52.337471 62.453472
30.408737 30 69.831467
45.792614 30 82.484985
99.005379 30 47.390839
117.04181 43.5 71.792999
108.94292 36.605694 44.402309
70.879517 43.5 102.18171
75.932175 30 98.783875
88.465195 30 96.210976
67.426529 43.5 38.765556
94.876877 43.5 59.736362
72.56636 30 52.998146
96.152092 30 68.080666
74.183319 46.996479 83.857193
38.612766 33.366188 47.695301
74.134018 30 65.64418
119.38788 37.951675 64.026627
120.66031 37.346161 72.875717
113.31014 43.5 74.337601
32.448074 43.5 59.894592
61.564758 50.525261 75.441292
87.178146 30 97.414642
94.388161 43.5 53.332466
101.28956 43.5 45.421349
50.668922 32.166744 36.63015
32.052532 30 79.507744
106.69409 30 97.656212
115.25465 32.048706 96.053604
114.90086 30 58.437927
74.591553 43.5 117.27255
83.772064 41.751724 75.695099
77.698616 43.5 101.93382
83.825653 30 96.826973
107.96721 43.5 100.40126
42.746784 42.930412 39.162849
111.84078 36.85128 47.946812
93.374626 30 58.525955
59.226601 40.070595 31.624674
99.77507 43.5 91.350204
69.783272 32.133469 120.13026
83.918045 38.021427 119.8516
52.409069 30 87.536308
92.566147 30 40.98864
52.415199 30 91.109764
102.97542 30 97.509377
111.01498 41.058731 43.221634
46.386936 30 75.675148
94.714272 43.5 69.305664
88.784378 30 34.628822
63.364265 52.337471 75.104958
67.639175 52.337471 66.521019
59.894112 30 58.995033
120.36288 37.257214 80.63562
89.775055 43.5 91.742432
56.207779 43.5 33.089321
63.731194 30 118.42574
93.951309 30 35.799934
29.367863 36.927361 72.439873
113.46143 43.5 69.924614
86.414597 43.461552 29.269321
86.420593 30 101.60006
69.018364 30 81.5886
95.502228 43.5 92.51886
91.463203 43.5 46.961628
61.07111 43.5 47.259445
65.541794 47.955261 85.499741
87.626099 51.610775 71.302979
107.42891 43.5 107.16301
76.478264 52.337471 63.922188
114.78952 30 71.487106
62.677811 30 117.32207
38.863865 30 71.626282
40.071873 43.5 99.160469
52.111279 30 86.941208
113.13541 32.065193 99.682579
65.211967 43.5 37.508984
120.3753 43.5 80.945709
97.045448 43.5 59.077946
54.434761 38.729252 34.087021
44.890617 43.170311 112.30703
42.489021 30 47.059124
104.95737 34.814316 109.37051
40.195747 42.337887 108.76317
61.417015 49.988777 74.681519
88.831276 30 41.082577
34.066833 43.5 95.166748
117.63432 30 75.082863
42.166248 43.5 59.678185
91.874924 30 95.828903
55.750114 43.5 64.724899
59.066597 43.500004 112.56948
110.8072 42.904377 42.67725
101.68666 30 82.24955
83.394608 39.728161 72.481201
73.150169 30 59.999161
38.127934 35.550999 101.91298
47.104492 33.040558 39.078773
95.592361 30 41.169834
71.901535 30 42.714485
54.05125 31.116482 115.2547
55.693169 43.5 33.082218
70.020187 52.337471 82.825813
108.32847 34.557598 43.924004
110.90985 43.5 54.56369
43.527447 30 100.29958
116.31747 43.5 87.821579
54.994484 30 56.552166
44.020424 30 51.623348
83.747803 39.741463 74.465729
63.357998 43.5 47.3358
29.286844 37.359894 75.007095
39.042294 30 93.616043
76.87484 43.89595 91.878189
105.48848 30.000002 60.738918
100.17503 38.41983 36.794914
93.425522 30 39.091927
61.925903 30 80.902679
34.166161 42.376293 101.14074
99.95446 43.5 53.843803
35.324398 30 66.504822
49.885948 43.5 74.227722
54.46376 43.5 50.637508
56.653069 32.031479 33.440521
96.210526 30 101.60262
82.465897 38.621162 70.451538
31.881327 30 65.318932
72.968742 30.387178 120.23541
103.03272 30 97.542877
115.65844 32.886429 54.644707
112.33926 30 95.944473
65.431137 41.22073 27.774202
96.789589 30 77.87146
90.108696 44.430191 80.929611
63.023224 43.5 54.327602
71.282021 30 95.464417
39.10334 30 65.676575
84.53582 34.619511 119.56487
90.808723 31.976099 117.58471
73.057281 38.948532 120.77773
96.009361 37.417126 34.400425
29.627453 38.042351 69.30159
78.958282 37.474342 67.228539
96.788132 43.5 55.068256
92.855705 31.516365 33.260559
30.627686 37.683121 63.996384
81.220535 52.337471 67.534744
86.622986 39.876328 30.448608
74.79538 43.5 30.20097
76.213676 40.026318 83.682777
82.746834 43.5 34.846478
90.943787 30 81.822098
120.61126 35.716057 72.874466
28.546696 42.8508 88.164986
57.80431 30 98.016693
37.593658 38.173454 48.690147
111.39059 43.5 102.64625
89.804451 43.5 31.810665
72.624977 43.5 41.799438
94.972916 43.5 111.61031
83.457428 35.610321 73.016464
54.454346 30 92.631775
52.449818 41.761723 32.114746
99.681656 30 89.211945
85.534531 31.023136 119.13437
67.000549 46.540104 78.86541
80.819923 30.054108 81.315994
78.021408 43.5 114.4678
69.360512 44.26545 68.185944
52.169064 31.697464 114.25555
92.478699 40.825638 119.38046
59.877033 30 63.99818
65.242348 30 101.37532
85.984955 43.5 94.537735
67.803802 52.337471 84.111855
73.245331 43.5 41.744766
54.036453 43.5 96.614944
115.63362 43.5 57.810753
68.289917 43.5 120.07001
72.727371 30 50.255138
101.8708 30 40.304001
45.725216 43.5 70.495522
80.625702 30 55.20118
115.82655 40.820366 50.366005
29.776058 37.006626 81.613777
52.056469 43.5 79.900284
59.23716 42.496243 29.18309
45.413849 43.5 90.674217
107.84177 30 95.108841
119.88173 33.920551 82.617554
78.485825 30 96.679695
45.127895 43.5 86.784012
75.100037 30.364008 83.593811
30.906349 30 75.483116
90.390656 30 111.89888
104.42702 31.428421 40.433338
77.844948 34.655796 83.193985
116.5771 42.260796 99.970352
58.302143 43.603603 69.656219
121.80988 43.475189 70.619148
99.78714 43.5 64.067558
41.545383 30 96.284637
31.861782 40.075924 58.575279
83.942543 50.959896 75.687424
62.389801 52.292969 72.338669
29.290691 38.011578 73.748718
65.237373 43.463478 28.905382
64.225555 30 45.466743
94.071976 43.5 44.670479
103.35144 34.18396 110.63781
62.406967 52.10746 78.325958
67.354279 40.134628 29.426203
72.48587 43.5 118.98223
67.662369 30 90.111244
102.49763 30 53.232944
85.368454 43.5 41.074688
89.939484 30 99.439163
86.3703 38.366325 30.689358
119.13433 37.52927 63.095383
81.166107 30 104.65456
87.960251 43.5 36.334335
72.949562 47.724541 66.328537
90.414955 30 95.048019
33.136086 40.576466 95.949799
116.0015 34.937054 94.960251
69.65509 30 95.210464
87.418198 30 66.866333
108.89376 30 95.649956
29.901808 30.164433 72.923248
88.930534 43.5 112.30626
47.695282 30 87.396423
103.63145 43.5 77.350426
95.245651 30 48.4389
